ncols 65
nrows 65
xllcorner 0.0
yllcorner 0.0
cellsize 10
nodata_value 0
0.000000e+00 4.093120e-01 2.062688e-01 5.451962e-01 7.358845e-01 2.951257e-01 -3.526747e-01 -1.624815e+00 -2.429452e+00 -2.366007e+00 -2.543856e+00 -2.415996e+00 -2.357863e+00 -1.122574e+00 -8.422761e-01 -1.403531e+00 -1.188187e+00 -1.455269e+00 -9.294312e-01 -3.387050e-01 9.161737e-02 4.816632e-01 -4.860006e-02 3.910134e-01 1.568477e+00 2.756413e+00 4.241294e+00 5.002322e+00 5.523160e+00 6.623467e+00 7.007210e+00 7.374577e+00 7.036988e+00 6.596200e+00 6.654671e+00 6.929693e+00 6.787864e+00 5.188237e+00 4.302950e+00 4.079769e+00 2.986355e+00 1.608279e+00 3.846948e-01 1.338902e-01 -2.876433e-01 3.552961e-01 7.201737e-01 6.703740e-01 3.161847e-02 -3.830502e-01 -5.644775e-01 -3.699178e-03 1.586871e-01 -9.544691e-01 -1.922342e+00 -2.770725e+00 -3.470014e+00 -2.816867e+00 -2.066676e+00 -2.457409e+00 -2.462081e+00 -2.289005e+00 -1.606624e+00 -8.052108e-01 0.000000e+00
-1.029401e-01 1.047226e-01 4.652419e-02 -3.404098e-01 6.297875e-02 -3.743561e-02 -6.843175e-01 -2.369333e+00 -3.387573e+00 -2.227645e+00 -2.764057e+00 -3.453300e+00 -2.796696e+00 -1.553578e+00 -1.430582e+00 -7.359543e-01 -1.068943e+00 -2.218298e+00 -2.576355e+00 -1.342251e+00 -6.149000e-01 5.615793e-01 5.451071e-01 8.277888e-01 1.545211e+00 1.964440e+00 2.934449e+00 3.945266e+00 4.888640e+00 4.587756e+00 5.466111e+00 5.319399e+00 5.387488e+00 7.308974e+00 7.239822e+00 7.584454e+00 7.917328e+00 5.832092e+00 4.655709e+00 3.371464e+00 3.390684e+00 1.978748e+00 6.682421e-01 7.348329e-01 7.565164e-01 5.213596e-01 5.887099e-01 8.948516e-01 1.289473e+00 -1.732382e+00 -1.906084e+00 -8.650487e-01 -1.217892e+00 -1.610131e+00 -2.548199e+00 -2.798963e+00 -3.756265e+00 -3.795216e+00 -2.910319e+00 -2.336516e+00 -2.311291e+00 -2.677382e+00 -2.353466e+00 -9.953634e-01 -5.497723e-02
-7.905641e-01 -1.401403e-01 -2.782044e-01 -8.422738e-01 -4.213420e-01 -7.039839e-01 -1.105282e+00 -2.585810e+00 -3.665771e+00 -3.445896e+00 -2.568163e+00 -2.715953e+00 -3.413103e+00 -2.603801e+00 -1.478934e+00 -1.999643e+00 -1.564641e+00 -2.634819e+00 -3.264987e+00 -2.010034e+00 -1.392393e+00 -3.311917e-01 7.563338e-01 1.167786e+00 9.767546e-01 1.317754e+00 2.430164e+00 2.881812e+00 3.956071e+00 3.918175e+00 3.700352e+00 3.815687e+00 3.760498e+00 6.171658e+00 7.618434e+00 7.820967e+00 8.967100e+00 7.365485e+00 5.021237e+00 4.383175e+00 3.397464e+00 2.672742e+00 1.413568e+00 1.506742e+00 9.684047e-01 4.025768e-01 6.172985e-01 1.411086e+00 1.885758e+00 -5.755654e-01 -2.718228e+00 -2.639543e+00 -1.943339e+00 -2.657696e+00 -2.452494e+00 -3.400884e+00 -3.921624e+00 -3.770168e+00 -3.518371e+00 -2.688883e+00 -1.911808e+00 -2.501555e+00 -3.009178e+00 -1.868147e+00 -7.784765e-01
1.374085e-01 -5.623251e-01 -2.302330e-01 -8.452385e-01 -9.058229e-01 -1.629278e+00 -2.341095e+00 -3.097926e+00 -3.736102e+00 -3.754581e+00 -2.857238e+00 -2.613078e+00 -3.358013e+00 -2.324146e+00 -1.669321e+00 -1.428280e+00 -1.477650e+00 -2.067720e+00 -2.602636e+00 -3.743987e+00 -2.403772e+00 -1.461509e+00 -4.459370e-01 1.058563e-01 5.696788e-01 1.283295e+00 2.567908e+00 2.093100e+00 2.566563e+00 3.082384e+00 2.350764e+00 2.421867e+00 2.901468e+00 4.624527e+00 6.583386e+00 9.232147e+00 9.068304e+00 8.780802e+00 6.332670e+00 4.891236e+00 4.278713e+00 2.811968e+00 1.817933e+00 1.174307e+00 9.925036e-01 6.618435e-01 8.203142e-01 1.540688e+00 1.440986e+00 4.300190e-01 -1.510236e+00 -3.706617e+00 -2.591900e+00 -3.143373e+00 -3.259641e+00 -3.412965e+00 -3.428834e+00 -3.435644e+00 -2.896712e+00 -3.000585e+00 -1.764787e+00 -1.828261e+00 -1.881518e+00 -2.376448e+00 -1.795170e+00
2.785064e-01 8.360099e-02 -3.162924e-01 -1.032673e+00 -2.279023e+00 -2.536050e+00 -3.766994e+00 -3.761033e+00 -4.093775e+00 -3.991149e+00 -4.118509e+00 -3.218176e+00 -3.023577e+00 -2.004217e+00 -1.837155e+00 -2.278906e+00 -1.944023e+00 -1.455656e+00 -1.923576e+00 -2.649895e+00 -3.879007e+00 -3.379098e+00 -2.126149e+00 -8.300241e-01 2.777480e-01 1.401832e+00 1.982671e+00 1.576359e+00 1.794243e+00 1.409126e+00 1.355762e+00 1.440417e+00 1.668117e+00 3.881940e+00 5.474808e+00 7.993778e+00 1.005893e+01 8.861457e+00 8.277167e+00 7.136959e+00 5.118888e+00 4.377819e+00 3.147250e+00 1.999599e+00 7.063828e-01 8.334126e-01 4.137494e-01 7.723074e-01 1.904268e+00 1.136656e+00 -3.741509e-01 -2.499750e+00 -3.987542e+00 -4.756467e+00 -4.544865e+00 -3.832357e+00 -3.761455e+00 -2.743199e+00 -1.950524e+00 -2.273136e+00 -1.776746e+00 -1.303482e+00 -1.298253e+00 -1.570990e+00 -2.636078e+00
9.623298e-01 -3.859115e-01 -1.034614e+00 -1.428992e+00 -2.533785e+00 -2.648172e+00 -3.603109e+00 -3.592726e+00 -4.428847e+00 -3.584344e+00 -4.081611e+00 -3.283595e+00 -2.998545e+00 -2.862458e+00 -2.532910e+00 -2.662947e+00 -2.525888e+00 -1.647176e+00 -1.198877e+00 -2.381767e+00 -3.370221e+00 -3.884634e+00 -3.249666e+00 -2.258535e+00 -1.221109e+00 -2.789982e-01 3.973923e-01 1.209353e+00 6.562602e-01 1.193520e+00 1.306214e+00 3.447013e-01 1.262518e+00 1.674192e+00 4.202639e+00 6.337256e+00 8.807039e+00 1.047815e+01 9.332785e+00 8.192668e+00 7.048044e+00 4.611396e+00 3.690522e+00 3.275381e+00 1.801258e+00 8.106270e-01 8.175761e-01 1.409154e+00 1.953669e+00 1.785857e+00 3.618188e-01 -8.417293e-01 -2.454759e+00 -4.553889e+00 -4.817344e+00 -4.434573e+00 -3.796134e+00 -3.616519e+00 -3.095809e+00 -2.485009e+00 -2.625376e+00 -1.006055e+00 -1.429978e+00 -2.311019e+00 -2.417190e+00
1.096029e+00 2.099249e-01 -1.660363e+00 -2.428124e+00 -2.423764e+00 -2.991304e+00 -3.634564e+00 -3.886082e+00 -4.369598e+00 -4.281989e+00 -3.309629e+00 -2.787776e+00 -2.629101e+00 -2.392021e+00 -3.096889e+00 -3.177769e+00 -2.934193e+00 -2.139837e+00 -1.102158e+00 -2.580451e+00 -3.072003e+00 -3.841443e+00 -3.738608e+00 -2.571747e+00 -2.148899e+00 -1.205695e+00 -5.713788e-01 -6.844694e-01 -2.345944e-02 3.076754e-01 8.488320e-01 6.220880e-01 -1.033448e-01 1.517328e+00 2.182461e+00 4.831750e+00 6.968446e+00 8.449721e+00 1.087704e+01 9.195391e+00 8.236387e+00 6.505127e+00 4.437166e+00 3.717008e+00 2.927874e+00 1.839254e+00 6.936905e-01 1.667776e+00 2.200058e+00 1.317021e+00 1.126668e+00 2.549796e-02 -1.821193e+00 -3.505551e+00 -4.573774e+00 -4.082252e+00 -4.529292e+00 -3.691268e+00 -3.509595e+00 -3.709412e+00 -3.647004e+00 -2.119460e+00 -9.650715e-01 -1.449332e+00 -2.525697e+00
1.981369e+00 -4.060477e-01 -1.718321e+00 -2.755089e+00 -2.900058e+00 -3.843386e+00 -4.670968e+00 -4.471605e+00 -4.986249e+00 -4.505844e+00 -4.462322e+00 -3.820045e+00 -3.718142e+00 -3.265102e+00 -3.358084e+00 -3.365550e+00 -3.023845e+00 -2.028754e+00 -1.100909e+00 -9.860202e-01 -2.521320e+00 -1.911145e+00 -2.583744e+00 -3.728698e+00 -3.229881e+00 -1.416571e+00 -3.412801e-01 -5.070669e-01 -1.981879e-01 -5.086619e-01 -7.287762e-01 -1.787029e-01 -5.909074e-01 4.175229e-01 1.421755e+00 2.082677e+00 4.843536e+00 6.836310e+00 9.001968e+00 1.003499e+01 9.474751e+00 7.891851e+00 5.840184e+00 4.819327e+00 3.285447e+00 2.986262e+00 2.153820e+00 1.092723e+00 1.929464e+00 2.530810e+00 1.591214e+00 9.023720e-02 -7.580002e-01 -2.024192e+00 -3.711684e+00 -4.736253e+00 -5.144857e+00 -4.952181e+00 -4.631265e+00 -4.370591e+00 -3.916429e+00 -3.196056e+00 -2.482311e+00 -1.041885e+00 -2.347733e+00
1.923058e+00 -1.114330e-01 -1.222299e+00 -2.634755e+00 -3.591359e+00 -3.981542e+00 -5.166691e+00 -5.484971e+00 -5.990549e+00 -5.066478e+00 -4.684527e+00 -4.388139e+00 -3.985029e+00 -4.205686e+00 -3.697203e+00 -3.822077e+00 -3.578895e+00 -2.882381e+00 -1.962201e+00 -2.009510e+00 -1.782178e+00 -1.534418e+00 -1.655962e+00 -2.107782e+00 -3.495420e+00 -2.647703e+00 -8.933132e-01 -5.781062e-01 -1.883576e-01 -4.421093e-01 -1.391478e+00 -5.783680e-01 -6.946290e-01 4.683199e-01 1.235197e+00 2.186088e+00 2.766135e+00 4.480556e+00 6.403779e+00 8.282051e+00 1.005727e+01 8.757183e+00 6.598622e+00 5.640471e+00 4.286074e+00 3.579353e+00 3.328742e+00 3.124736e+00 2.206899e+00 2.415643e+00 1.890014e+00 5.480174e-01 -4.037679e-01 -1.482343e+00 -2.342831e+00 -4.025269e+00 -5.338760e+00 -5.709225e+00 -5.087430e+00 -4.317612e+00 -4.472493e+00 -4.056029e+00 -3.194638e+00 -2.304339e+00 -1.834445e+00
2.609954e+00 1.028640e+00 -1.476865e-01 -2.355175e+00 -2.869586e+00 -3.339889e+00 -4.241343e+00 -5.497441e+00 -5.657100e+00 -6.637082e+00 -5.450148e+00 -5.548267e+00 -4.684110e+00 -4.385559e+00 -3.850503e+00 -4.294746e+00 -4.157219e+00 -3.509630e+00 -2.499713e+00 -1.662104e+00 -2.393129e+00 -2.337353e+00 -2.209965e+00 -3.656519e+00 -3.942034e+00 -3.517976e+00 -1.954378e+00 -8.105757e-01 -2.100102e-01 -1.315228e+00 -1.858667e+00 -2.105203e+00 -1.258008e+00 -6.098649e-01 2.328256e-01 2.058006e+00 2.934244e+00 4.384793e+00 6.165621e+00 8.706415e+00 1.072930e+01 9.470713e+00 8.511297e+00 7.181989e+00 5.966135e+00 3.963585e+00 3.157829e+00 3.034214e+00 2.972484e+00 2.134072e+00 1.984755e+00 9.836438e-01 -2.033412e-01 -3.260037e-01 -1.302738e+00 -2.448876e+00 -3.740341e+00 -4.787375e+00 -5.005409e+00 -5.003701e+00 -4.231578e+00 -4.262352e+00 -3.880373e+00 -3.958853e+00 -2.962355e+00
3.491187e+00 2.270587e+00 3.167237e-01 -1.112187e+00 -2.986830e+00 -3.030105e+00 -3.162134e+00 -3.818234e+00 -4.987321e+00 -6.250205e+00 -7.039050e+00 -6.786245e+00 -6.010671e+00 -5.490368e+00 -4.962929e+00 -5.441030e+00 -5.218726e+00 -4.844286e+00 -3.678932e+00 -3.121634e+00 -2.166732e+00 -2.321528e+00 -3.069435e+00 -3.663883e+00 -4.691288e+00 -4.123844e+00 -2.737333e+00 -1.708600e+00 2.590245e-01 -2.109774e-01 -1.480143e+00 -1.969448e+00 -1.940651e+00 -1.271816e+00 3.200912e-02 9.126824e-01 2.474158e+00 3.932511e+00 5.420547e+00 8.345345e+00 1.091992e+01 1.076128e+01 9.744287e+00 8.281425e+00 7.059838e+00 5.341288e+00 3.554945e+00 2.790574e+00 2.906815e+00 3.003324e+00 2.346553e+00 1.272695e+00 3.630630e-02 -3.973495e-01 -1.117391e+00 -1.608550e+00 -3.022945e+00 -4.584355e+00 -5.152295e+00 -5.125190e+00 -4.123243e+00 -4.738531e+00 -4.956357e+00 -4.924683e+00 -3.993915e+00
3.717905e+00 2.067425e+00 6.412693e-01 -3.132822e-02 -1.794585e+00 -1.725549e+00 -1.582265e+00 -2.781130e+00 -3.983520e+00 -5.289132e+00 -6.400155e+00 -6.946481e+00 -5.924267e+00 -5.801902e+00 -5.967834e+00 -5.468324e+00 -5.659078e+00 -5.271677e+00 -4.516318e+00 -3.909237e+00 -2.699391e+00 -4.028359e+00 -4.312650e+00 -4.530271e+00 -4.621523e+00 -4.128353e+00 -3.137137e+00 -1.488859e+00 2.600208e-01 2.070962e-01 -1.410264e+00 -1.324905e+00 -1.888959e+00 -1.685438e+00 -5.856909e-01 4.367120e-01 2.300242e+00 3.228617e+00 5.210407e+00 7.613340e+00 1.069798e+01 1.128645e+01 9.938370e+00 1.018054e+01 8.352984e+00 6.686726e+00 5.052333e+00 3.426252e+00 2.986148e+00 2.125580e+00 2.357096e+00 1.547379e+00 1.257476e+00 -2.005370e-01 -1.377364e+00 -1.148362e+00 -2.874269e+00 -2.793588e+00 -4.300939e+00 -4.426220e+00 -4.289617e+00 -4.606718e+00 -5.193569e+00 -4.246350e+00 -4.487801e+00
3.611299e+00 1.814155e+00 7.937346e-01 3.285528e-01 -4.642260e-01 -7.014542e-01 -7.712950e-01 -9.653497e-01 -2.101921e+00 -3.509269e+00 -4.947031e+00 -5.718199e+00 -6.468775e+00 -6.043078e+00 -6.335252e+00 -6.555265e+00 -5.946113e+00 -5.926397e+00 -5.691818e+00 -4.818451e+00 -4.206425e+00 -4.551019e+00 -5.671271e+00 -5.992315e+00 -5.502413e+00 -4.233739e+00 -3.740048e+00 -2.362725e+00 -5.180016e-01 -5.521073e-01 -3.487684e-01 -1.214136e+00 -1.677715e+00 -8.628082e-01 -8.658649e-01 8.934669e-01 1.805241e+00 3.487409e+00 4.957356e+00 7.417292e+00 9.816069e+00 1.003967e+01 1.079864e+01 9.975063e+00 9.897744e+00 8.008342e+00 6.811545e+00 5.167058e+00 4.051804e+00 2.470719e+00 1.773740e+00 1.426646e+00 1.494033e+00 6.236571e-01 -1.172075e+00 -1.193278e+00 -2.057710e+00 -2.417499e+00 -2.471165e+00 -3.417951e+00 -3.461735e+00 -3.796691e+00 -4.780545e+00 -4.331139e+00 -4.404644e+00
2.725740e+00 3.421152e+00 2.083996e+00 1.027371e+00 2.665598e-01 8.249128e-03 3.343809e-01 1.018813e-01 -3.781247e-01 -2.833580e+00 -5.065559e+00 -5.033097e+00 -6.367443e+00 -6.940253e+00 -7.085083e+00 -6.905535e+00 -7.101650e+00 -5.941510e+00 -6.334769e+00 -6.047975e+00 -4.750806e+00 -5.514064e+00 -6.246661e+00 -6.063055e+00 -5.814712e+00 -5.464123e+00 -4.706890e+00 -2.888164e+00 -6.872166e-01 -1.053646e+00 -8.127460e-01 -8.859760e-01 -1.582778e+00 -1.601829e-02 1.357208e-01 6.039492e-01 1.629965e+00 3.167559e+00 4.608209e+00 6.217143e+00 9.399470e+00 9.973186e+00 1.015351e+01 1.090285e+01 1.044254e+01 9.358796e+00 7.631871e+00 6.425549e+00 4.828918e+00 3.931744e+00 2.710920e+00 3.295311e+00 2.737043e+00 2.846692e+00 1.466944e+00 8.866822e-02 -2.958484e-01 -1.006907e+00 -1.055374e+00 -2.292113e+00 -2.825130e+00 -3.298893e+00 -4.083060e+00 -4.717545e+00 -4.451055e+00
2.651137e+00 2.575821e+00 2.868781e+00 2.361501e+00 9.907806e-01 1.218403e+00 9.382765e-01 8.550691e-01 3.605413e-01 -2.235586e+00 -4.221320e+00 -4.906859e+00 -5.925691e+00 -7.031638e+00 -7.753450e+00 -7.940138e+00 -8.236933e+00 -7.694019e+00 -6.163509e+00 -6.543604e+00 -6.071102e+00 -6.096182e+00 -6.487629e+00 -6.336498e+00 -6.401608e+00 -6.032580e+00 -5.569623e+00 -3.948706e+00 -1.554104e+00 -1.239963e+00 -1.534506e+00 -1.484128e+00 -6.187843e-01 -4.176269e-01 7.694539e-01 1.480115e+00 2.244625e+00 3.132565e+00 4.068378e+00 6.579661e+00 8.240040e+00 9.215112e+00 9.438503e+00 1.048516e+01 1.087761e+01 9.561848e+00 9.213464e+00 7.132469e+00 5.999833e+00 4.858027e+00 4.590774e+00 4.628236e+00 4.678789e+00 3.683929e+00 3.420076e+00 1.744724e+00 9.456594e-01 -3.937758e-02 -4.083054e-01 -6.371849e-01 -1.728634e+00 -2.390359e+00 -2.787319e+00 -3.392266e+00 -4.219644e+00
2.615026e+00 2.395857e+00 2.494540e+00 2.695398e+00 1.678247e+00 1.340465e+00 1.552216e+00 8.572750e-01 8.799031e-01 -1.508642e+00 -4.192827e+00 -4.806003e+00 -5.454196e+00 -6.649693e+00 -6.890068e+00 -8.654321e+00 -8.360389e+00 -8.697129e+00 -8.061622e+00 -7.054206e+00 -6.655245e+00 -7.284003e+00 -7.372127e+00 -6.870391e+00 -6.594881e+00 -6.383576e+00 -5.294904e+00 -5.004820e+00 -2.450763e+00 -2.090865e+00 -2.725650e+00 -9.457519e-01 -1.110115e+00 5.992761e-01 1.175302e+00 2.527012e+00 3.600316e+00 3.840281e+00 5.411687e+00 5.784832e+00 7.520011e+00 8.613849e+00 9.548592e+00 9.944683e+00 1.026582e+01 1.091757e+01 9.493011e+00 8.942108e+00 8.075755e+00 7.205332e+00 6.843461e+00 5.108856e+00 6.018615e+00 4.588286e+00 3.782494e+00 3.711000e+00 2.038398e+00 1.697995e+00 1.461094e+00 1.232810e-01 2.919410e-02 -1.680822e+00 -1.593832e+00 -2.929660e+00 -4.181739e+00
3.213337e+00 2.673684e+00 2.256217e+00 2.411503e+00 1.657455e+00 1.825921e+00 1.857640e+00 1.891451e+00 1.040783e+00 -1.642974e+00 -3.380014e+00 -4.403675e+00 -5.973888e+00 -6.719758e+00 -6.649011e+00 -8.294725e+00 -9.023492e+00 -9.205628e+00 -9.356432e+00 -8.743509e+00 -7.998478e+00 -7.997838e+00 -7.748344e+00 -7.976121e+00 -7.245354e+00 -7.051483e+00 -5.910164e+00 -5.118409e+00 -3.891130e+00 -3.313980e+00 -3.411347e+00 -1.717069e+00 -9.497796e-01 2.126258e-01 2.212447e+00 3.662213e+00 4.297358e+00 5.174819e+00 5.844834e+00 6.491059e+00 6.893599e+00 8.433060e+00 9.292379e+00 9.498742e+00 9.873187e+00 9.712056e+00 1.031923e+01 1.017621e+01 9.248010e+00 8.405917e+00 8.525046e+00 7.354626e+00 6.513830e+00 5.807494e+00 4.408019e+00 4.062644e+00 3.411209e+00 2.943254e+00 2.912358e+00 2.436562e+00 1.274128e+00 -1.018846e-01 -1.176068e+00 -2.626609e+00 -3.192968e+00
2.707446e+00 3.588714e+00 2.800826e+00 2.766741e+00 2.738116e+00 1.698217e+00 2.357410e+00 2.785870e+00 1.802355e+00 5.907442e-01 -1.864889e+00 -2.873197e+00 -4.375159e+00 -6.401133e+00 -6.699766e+00 -7.199298e+00 -8.793064e+00 -8.501013e+00 -8.811528e+00 -7.563504e+00 -7.171073e+00 -7.414656e+00 -6.787073e+00 -6.918968e+00 -6.786325e+00 -6.444268e+00 -6.349846e+00 -5.063058e+00 -3.897482e+00 -3.134930e+00 -2.988246e+00 -1.794520e+00 -1.136878e+00 -1.128181e+00 -1.314006e-02 1.383015e+00 1.929945e+00 3.849081e+00 4.935768e+00 5.138257e+00 5.686808e+00 6.145396e+00 7.462116e+00 8.006155e+00 8.557177e+00 9.101891e+00 9.674409e+00 8.593507e+00 8.476691e+00 8.698176e+00 8.240569e+00 8.343227e+00 7.471554e+00 6.829715e+00 5.327580e+00 5.010885e+00 4.657259e+00 2.572941e+00 3.015169e+00 2.181483e+00 9.793914e-01 3.073252e-01 -1.233266e+00 -2.029257e+00 -2.901000e+00
2.973803e+00 3.464678e+00 4.073974e+00 3.104123e+00 3.105581e+00 2.426002e+00 2.189106e+00 3.157602e+00 3.280407e+00 1.428558e+00 -5.009297e-02 -1.387825e+00 -2.540851e+00 -4.306450e+00 -6.150957e+00 -7.026252e+00 -8.299588e+00 -7.672459e+00 -7.636271e+00 -6.638686e+00 -6.379327e+00 -6.786233e+00 -6.796230e+00 -6.913920e+00 -6.070306e+00 -5.706343e+00 -6.163839e+00 -4.894569e+00 -3.498299e+00 -3.497626e+00 -3.004698e+00 -1.515991e+00 -4.630812e-01 -4.514193e-01 -1.364591e+00 -3.476716e-01 1.760375e-01 1.781350e+00 3.784577e+00 4.572687e+00 4.825683e+00 4.386759e+00 4.707200e+00 6.268481e+00 7.437194e+00 7.930605e+00 8.807077e+00 8.603570e+00 7.556422e+00 7.524556e+00 8.436938e+00 8.035964e+00 7.729890e+00 7.443770e+00 6.439485e+00 5.941685e+00 5.513311e+00 4.383593e+00 2.549484e+00 1.864720e+00 9.238976e-01 2.050936e-01 -5.211913e-01 -1.637441e+00 -2.975962e+00
2.870673e+00 3.135033e+00 3.538420e+00 4.512917e+00 3.705124e+00 3.721638e+00 3.109411e+00 2.896809e+00 4.003869e+00 1.830029e+00 7.112549e-01 1.360145e-01 -1.149503e+00 -3.039333e+00 -4.748066e+00 -6.194756e+00 -7.565915e+00 -7.501209e+00 -7.272780e+00 -7.281447e+00 -6.215808e+00 -6.144228e+00 -5.799019e+00 -6.405306e+00 -5.244226e+00 -5.293559e+00 -4.912373e+00 -5.399196e+00 -4.716019e+00 -3.406236e+00 -3.535868e+00 -1.577066e+00 -3.165330e-01 -5.769084e-01 -1.748390e+00 -1.678019e+00 -5.182688e-01 4.048828e-01 2.043807e+00 2.722575e+00 3.330719e+00 3.141953e+00 3.587128e+00 3.687996e+00 5.272297e+00 6.377125e+00 6.548894e+00 7.794482e+00 6.671351e+00 7.347561e+00 7.627935e+00 8.107386e+00 7.218529e+00 7.867002e+00 7.064704e+00 6.571729e+00 6.245017e+00 4.928626e+00 2.770892e+00 1.206044e+00 5.836530e-01 1.313098e-01 -8.374449e-01 -1.556997e+00 -2.245283e+00
3.421216e+00 3.376708e+00 3.049847e+00 3.563004e+00 4.011417e+00 4.411420e+00 4.708824e+00 4.244811e+00 3.735802e+00 2.303707e+00 1.242845e+00 7.915427e-01 6.342871e-01 -7.936677e-01 -2.756868e+00 -4.992712e+00 -6.232646e+00 -6.316408e+00 -6.398179e+00 -6.603272e+00 -6.531842e+00 -5.394335e+00 -4.910221e+00 -5.019355e+00 -5.020231e+00 -4.363431e+00 -4.422070e+00 -5.065636e+00 -4.997500e+00 -4.809310e+00 -3.650237e+00 -1.904981e+00 -6.614632e-01 -1.211191e+00 -1.621882e+00 -1.891318e+00 -1.994069e+00 -8.384608e-01 1.733801e-01 8.630765e-01 1.712522e+00 1.687720e+00 2.396527e+00 2.871337e+00 3.579488e+00 4.418039e+00 4.410525e+00 5.065590e+00 6.035125e+00 6.169674e+00 6.201984e+00 7.301389e+00 7.698734e+00 7.887947e+00 7.350730e+00 6.969394e+00 6.124244e+00 5.055443e+00 3.392056e+00 2.049721e+00 -3.161434e-02 -6.088389e-01 -1.415598e+00 -1.922991e+00 -2.487959e+00
2.749809e+00 3.431409e+00 2.559660e+00 2.853045e+00 3.195707e+00 5.029878e+00 5.158471e+00 4.610365e+00 4.815258e+00 3.217104e+00 1.789006e+00 6.706652e-01 4.002547e-01 1.465943e-01 -1.862509e+00 -2.235879e+00 -4.262972e+00 -5.863956e+00 -5.810630e+00 -5.974604e+00 -6.202382e+00 -5.536277e+00 -4.300938e+00 -4.904266e+00 -5.094431e+00 -4.623230e+00 -4.071503e+00 -4.253924e+00 -4.410916e+00 -3.849042e+00 -3.378260e+00 -2.123329e+00 -5.481053e-01 -1.169891e+00 -1.661111e+00 -2.525475e+00 -2.317042e+00 -2.946171e+00 -1.895259e+00 -6.130125e-01 8.942593e-01 3.020851e-01 6.597058e-01 2.141162e+00 1.912601e+00 2.569857e+00 2.692939e+00 4.285420e+00 5.222081e+00 6.159255e+00 6.375436e+00 5.929835e+00 7.115736e+00 8.541919e+00 8.325713e+00 7.737194e+00 7.351409e+00 5.256415e+00 4.497969e+00 2.203886e+00 3.719586e-01 -3.821598e-01 -1.111236e+00 -1.382797e+00 -2.547227e+00
2.901179e+00 2.536759e+00 2.564750e+00 2.806700e+00 2.985284e+00 3.957355e+00 5.300720e+00 5.345892e+00 5.167120e+00 3.841855e+00 2.879376e+00 1.897454e+00 7.370935e-01 2.303865e-01 -7.205369e-01 -1.680817e+00 -2.624145e+00 -4.033735e+00 -4.982605e+00 -5.035774e+00 -5.433099e+00 -4.972442e+00 -4.602718e+00 -4.027817e+00 -4.441062e+00 -3.945646e+00 -3.450712e+00 -3.202513e+00 -3.789166e+00 -3.062341e+00 -2.613996e+00 -2.026655e+00 -5.855543e-01 -3.329911e-01 -9.514833e-01 -1.729743e+00 -2.540054e+00 -3.051812e+00 -3.041475e+00 -1.577595e+00 -9.124038e-01 -1.036637e+00 -1.458239e+00 -7.686046e-01 8.922136e-01 1.766623e+00 1.804941e+00 2.878768e+00 3.435462e+00 4.944874e+00 6.560938e+00 6.502943e+00 6.276177e+00 7.723280e+00 8.929667e+00 8.939744e+00 7.988043e+00 6.346154e+00 4.967829e+00 3.265583e+00 1.090110e+00 8.228402e-01 -2.188597e-01 -7.597629e-01 -2.163216e+00
2.037700e+00 2.705165e+00 2.430121e+00 2.685738e+00 3.482463e+00 3.626921e+00 5.727118e+00 6.279419e+00 5.950453e+00 4.227687e+00 3.666371e+00 2.166902e+00 1.530715e+00 2.493125e-01 -5.517692e-01 -6.276134e-01 -1.718269e+00 -1.910688e+00 -3.715589e+00 -4.092363e+00 -3.895899e+00 -3.631405e+00 -3.303246e+00 -3.432916e+00 -3.053929e+00 -3.425320e+00 -2.679435e+00 -2.371294e+00 -2.770775e+00 -1.688466e+00 -1.557995e+00 -1.438967e+00 -2.858186e-01 -1.556697e+00 -1.752039e+00 -1.558636e+00 -2.814390e+00 -3.324242e+00 -3.020589e+00 -3.494132e+00 -2.997043e+00 -1.639975e+00 -2.329452e+00 -1.868999e+00 -5.816938e-01 -3.345700e-01 2.502474e-01 6.147839e-01 1.550751e+00 3.823467e+00 4.689353e+00 6.276719e+00 5.837508e+00 6.809496e+00 7.685384e+00 8.986313e+00 8.645503e+00 7.791497e+00 6.168797e+00 4.006922e+00 2.390939e+00 1.369550e+00 1.079812e+00 -4.998668e-01 -1.428541e+00
3.841961e-01 1.190745e+00 1.894065e+00 2.685434e+00 3.247422e+00 4.036541e+00 5.264277e+00 5.751162e+00 6.340161e+00 4.929715e+00 3.731630e+00 3.040337e+00 1.589558e+00 2.776720e-01 -1.427051e-01 -5.697946e-01 -3.927912e-01 -6.939965e-01 -1.829127e+00 -2.388015e+00 -2.841022e+00 -2.048384e+00 -2.099775e+00 -2.196699e+00 -2.449575e+00 -1.756710e+00 -2.035469e+00 -1.837339e+00 -2.214980e+00 -1.195608e+00 -5.229513e-02 -4.039103e-02 4.056377e-01 -4.669085e-01 -1.662322e+00 -1.809265e+00 -2.192741e+00 -3.316142e+00 -3.591807e+00 -4.046900e+00 -4.161547e+00 -3.775131e+00 -2.831131e+00 -2.791688e+00 -2.792405e+00 -1.833237e+00 -1.700433e+00 -2.894171e-01 1.578876e-01 1.777589e+00 3.301099e+00 4.416353e+00 5.731420e+00 6.415982e+00 7.232407e+00 8.235572e+00 9.773247e+00 9.242054e+00 7.750968e+00 5.727725e+00 4.040232e+00 2.700896e+00 2.297470e+00 1.340047e+00 -3.642688e-01
8.674735e-01 1.544416e+00 2.402372e+00 2.018701e+00 3.327777e+00 4.014216e+00 4.835698e+00 5.638428e+00 6.069348e+00 5.684729e+00 4.499873e+00 4.294861e+00 3.020528e+00 1.878421e+00 8.983190e-01 9.956996e-01 1.170387e+00 -3.799753e-01 -9.566342e-01 -1.831984e+00 -3.166277e+00 -2.064991e+00 -1.526663e+00 -1.407351e+00 -1.970294e+00 -2.757036e+00 -2.631622e+00 -3.111520e+00 -2.970194e+00 -2.016046e+00 -5.318241e-01 -4.311406e-01 -6.997354e-02 7.007346e-01 -5.949773e-01 -2.105189e+00 -2.147355e+00 -1.352827e+00 -2.139253e+00 -3.266837e+00 -3.227043e+00 -3.775794e+00 -3.473796e+00 -2.617258e+00 -2.541717e+00 -2.989903e+00 -1.904950e+00 -7.934307e-01 3.204321e-01 2.204365e+00 2.860595e+00 4.061872e+00 5.379764e+00 5.852433e+00 6.889768e+00 7.710225e+00 8.832824e+00 9.394528e+00 7.986680e+00 7.053612e+00 5.357212e+00 3.722531e+00 2.984069e+00 1.800049e+00 7.021234e-01
1.795332e+00 1.613419e+00 2.395454e+00 2.351744e+00 2.937476e+00 3.269373e+00 4.565188e+00 5.652648e+00 6.261801e+00 5.556761e+00 5.501661e+00 4.469919e+00 4.154830e+00 3.207624e+00 2.081694e+00 1.803944e+00 2.222242e+00 3.398483e-01 -8.519826e-01 -1.604005e+00 -2.723210e+00 -2.343969e+00 -1.685711e+00 -1.615281e+00 -7.475564e-01 -1.337780e+00 -2.375901e+00 -3.036280e+00 -3.723958e+00 -3.235741e+00 -1.958691e+00 -1.763094e+00 -1.211713e+00 -7.129327e-01 3.705339e-01 -1.967873e-01 -1.624976e+00 -1.357234e+00 -1.079318e+00 -1.490969e+00 -2.633524e+00 -2.771889e+00 -3.606892e+00 -3.187765e+00 -2.837296e+00 -3.216893e+00 -2.631738e+00 -1.449562e+00 -2.590352e-01 1.268882e+00 3.323296e+00 4.624390e+00 5.180325e+00 5.667606e+00 6.327973e+00 7.849184e+00 8.658352e+00 9.078216e+00 9.098585e+00 8.302870e+00 7.305949e+00 5.883777e+00 4.277048e+00 3.028224e+00 2.290945e+00
2.363877e+00 2.828798e+00 2.995236e+00 3.382178e+00 2.870172e+00 3.925223e+00 5.026212e+00 5.772703e+00 7.072181e+00 5.584758e+00 5.085501e+00 5.099802e+00 5.176901e+00 4.221180e+00 2.673666e+00 2.282380e+00 2.097772e+00 1.500005e+00 2.860277e-02 -4.669947e-01 -1.889439e+00 -1.375519e+00 -9.912447e-01 -1.103827e+00 -1.199473e+00 -6.655399e-01 -2.248881e+00 -3.595546e+00 -4.348442e+00 -3.624456e+00 -2.929027e+00 -1.775165e+00 -1.855904e+00 -7.622385e-01 2.035972e-01 -1.189713e-01 -9.931263e-01 -1.018486e+00 -9.287974e-01 -1.455116e+00 -1.928632e+00 -2.095029e+00 -2.528187e+00 -2.876858e+00 -2.494797e+00 -2.170618e+00 -2.264367e+00 -2.237743e+00 -1.089290e+00 4.057850e-02 2.682990e+00 3.813554e+00 4.707921e+00 5.117900e+00 5.918472e+00 7.728496e+00 8.703049e+00 8.919310e+00 8.792186e+00 9.519499e+00 8.434035e+00 7.338417e+00 5.362126e+00 4.271089e+00 3.994163e+00
2.854396e+00 2.526240e+00 3.087458e+00 3.852626e+00 3.712863e+00 3.745877e+00 4.677506e+00 6.108109e+00 7.469433e+00 6.577850e+00 5.547411e+00 5.474498e+00 5.339319e+00 4.748741e+00 3.583026e+00 3.033140e+00 2.850043e+00 2.033495e+00 1.513728e+00 6.180103e-01 -7.431676e-01 -2.866881e-01 -3.870271e-01 -1.445852e-01 -8.193158e-01 -1.450070e+00 -1.554535e+00 -2.625829e+00 -3.993022e+00 -3.514382e+00 -3.035204e+00 -2.548510e+00 -1.816918e+00 -7.579729e-01 -3.793527e-01 -8.364714e-01 -5.547846e-01 -3.992864e-01 -1.048330e+00 -1.161883e+00 -1.436641e+00 -1.272751e+00 -1.274458e+00 -1.790481e+00 -1.620167e+00 -1.387273e+00 -1.237722e+00 -1.457205e+00 -2.206955e+00 -5.629975e-01 1.197218e+00 2.648673e+00 5.045200e+00 5.799597e+00 5.946970e+00 7.201432e+00 8.318624e+00 9.267012e+00 9.366565e+00 9.543860e+00 8.978412e+00 8.158896e+00 7.347503e+00 6.118125e+00 4.804644e+00
3.177873e+00 4.009245e+00 3.628386e+00 3.408536e+00 3.672323e+00 4.016585e+00 4.554733e+00 5.827945e+00 6.946508e+00 5.654596e+00 4.550663e+00 4.956911e+00 4.860079e+00 4.925375e+00 3.983690e+00 3.228383e+00 2.764257e+00 2.584322e+00 2.264281e+00 1.897960e+00 2.911419e-01 -5.898649e-02 -1.261960e-01 2.296199e-01 7.559985e-01 -1.427285e-01 -8.728553e-01 -2.542184e+00 -3.182722e+00 -4.046439e+00 -3.323821e+00 -2.634095e+00 -2.691033e+00 -1.855674e+00 -1.043779e+00 -8.634550e-01 -8.084676e-01 -1.109124e+00 -1.618459e+00 -1.327054e+00 -1.171814e+00 -2.229504e+00 -2.262007e+00 -1.679033e+00 -2.359762e+00 -1.808675e+00 -1.337605e+00 -2.035812e+00 -1.996161e+00 -5.193967e-01 6.431540e-01 2.055905e+00 3.985114e+00 6.073720e+00 6.686019e+00 6.577341e+00 8.107015e+00 7.871022e+00 8.396533e+00 8.127736e+00 8.109551e+00 9.155768e+00 7.684825e+00 7.487922e+00 6.375679e+00
3.447223e+00 4.626478e+00 4.841140e+00 4.083584e+00 3.969623e+00 4.174173e+00 3.737971e+00 5.002048e+00 6.969717e+00 5.491977e+00 4.111031e+00 3.864886e+00 3.710534e+00 4.312860e+00 4.980723e+00 3.250947e+00 2.158195e+00 2.918432e+00 2.721585e+00 2.065800e+00 1.847263e+00 1.182204e+00 6.072871e-02 9.927972e-01 1.529614e+00 1.101347e+00 1.282838e-01 -1.572326e+00 -2.662830e+00 -2.914535e+00 -3.309786e+00 -2.729526e+00 -2.797078e+00 -2.793617e+00 -2.107462e+00 -1.130244e+00 -7.101691e-01 -1.570337e+00 -1.483482e+00 -1.124333e+00 -6.870648e-01 -1.161145e+00 -2.502982e+00 -2.525238e+00 -2.129531e+00 -1.988985e+00 -1.426624e+00 -1.839573e+00 -2.302080e+00 -1.119639e+00 5.175004e-01 1.420926e+00 3.308460e+00 4.640230e+00 6.707245e+00 7.627018e+00 7.927750e+00 8.011334e+00 7.400139e+00 7.386552e+00 7.637589e+00 7.600351e+00 8.366682e+00 7.392423e+00 7.135443e+00
4.150971e+00 3.737596e+00 4.281619e+00 4.582069e+00 4.471728e+00 3.999993e+00 4.201176e+00 4.459302e+00 5.924067e+00 5.502053e+00 4.133224e+00 3.114572e+00 3.030320e+00 3.504159e+00 4.205744e+00 4.440899e+00 2.960366e+00 2.740445e+00 2.688478e+00 3.109385e+00 2.656062e+00 2.442498e+00 8.587826e-01 1.091676e+00 2.392829e+00 1.105320e+00 4.301358e-01 -6.001814e-01 -1.612117e+00 -2.463761e+00 -2.741510e+00 -3.278743e+00 -2.943588e+00 -2.910473e+00 -2.371280e+00 -1.728336e+00 -8.614159e-01 -1.268008e+00 -1.211112e+00 -8.823354e-01 -5.091667e-01 -1.305685e+00 -2.400889e+00 -2.090376e+00 -2.101252e+00 -1.631254e+00 -7.765411e-01 -1.280669e+00 -2.018677e+00 -5.818182e-01 7.883602e-01 2.223325e+00 2.885991e+00 4.382950e+00 6.361169e+00 7.450209e+00 7.773235e+00 7.378374e+00 7.180603e+00 6.753467e+00 6.900334e+00 7.317163e+00 8.160633e+00 8.502343e+00 7.722374e+00
5.482890e+00 4.668269e+00 4.236346e+00 4.952389e+00 4.971174e+00 4.653590e+00 4.370188e+00 5.367395e+00 5.500790e+00 5.360890e+00 4.262737e+00 3.871459e+00 2.604694e+00 3.369776e+00 3.647185e+00 2.857527e+00 3.011552e+00 2.523911e+00 2.797040e+00 2.867007e+00 2.922184e+00 2.228030e+00 2.057272e+00 2.669208e+00 2.573314e+00 2.394168e+00 1.377570e+00 1.114780e-01 -8.779107e-01 -1.830566e+00 -2.673152e+00 -3.411902e+00 -3.202213e+00 -2.717262e+00 -2.197817e+00 -1.784097e+00 -9.462765e-01 -1.272520e+00 -1.104804e+00 -7.750230e-01 -1.060731e+00 -1.285112e+00 -1.834314e+00 -1.769486e+00 -2.228502e+00 -1.371849e+00 -9.558215e-01 -1.121101e+00 -9.445742e-01 1.843687e-01 9.152603e-01 1.674498e+00 3.005523e+00 3.916997e+00 5.715804e+00 7.034679e+00 7.876987e+00 7.493899e+00 7.615166e+00 6.971613e+00 6.684968e+00 7.285261e+00 7.550849e+00 8.306865e+00 9.102430e+00
4.986332e+00 4.133583e+00 3.364258e+00 2.697165e+00 3.448732e+00 3.674527e+00 3.418618e+00 3.794966e+00 5.159896e+00 5.044766e+00 3.548008e+00 3.809680e+00 2.549043e+00 2.403911e+00 2.980486e+00 2.616916e+00 1.988841e+00 2.709396e+00 1.904242e+00 2.481451e+00 2.300199e+00 2.146215e+00 1.749385e+00 2.158933e+00 2.566742e+00 1.877233e+00 1.192092e+00 3.344027e-01 -2.780279e-01 -1.586578e+00 -2.895174e+00 -3.063530e+00 -3.528899e+00 -2.778792e+00 -2.945014e+00 -2.337229e+00 -2.290663e+00 -8.407206e-01 -8.498831e-01 -1.467149e+00 -1.377798e+00 -1.339496e+00 -2.376961e+00 -2.514506e+00 -2.269767e+00 -2.341798e+00 -1.179029e+00 -9.022295e-01 -5.497008e-01 -1.128468e+00 9.824242e-02 1.550438e+00 2.384103e+00 3.686966e+00 4.781564e+00 6.282808e+00 7.346348e+00 7.639287e+00 7.165547e+00 7.267824e+00 6.727170e+00 6.806595e+00 6.933373e+00 8.036463e+00 8.317838e+00
4.783303e+00 3.360875e+00 2.532946e+00 2.356753e+00 2.081450e+00 2.196273e+00 2.630562e+00 3.364098e+00 4.079542e+00 3.856031e+00 3.722991e+00 3.311649e+00 2.508092e+00 2.181616e+00 1.478285e+00 1.602733e+00 1.226887e+00 1.921963e+00 1.874589e+00 1.894986e+00 1.403261e+00 1.133420e+00 1.546543e+00 2.077230e+00 1.843094e+00 2.062286e+00 1.356278e+00 1.054403e+00 -2.027055e-01 -7.638549e-01 -2.183995e+00 -3.251291e+00 -4.191680e+00 -3.202593e+00 -3.047632e+00 -3.098237e+00 -2.661208e+00 -1.723344e+00 -5.534471e-01 -1.268314e+00 -1.615637e+00 -1.481184e+00 -1.939417e+00 -2.460358e+00 -3.113697e+00 -2.998084e+00 -1.907450e+00 -1.407572e+00 -1.127856e+00 -8.707790e-01 -5.246881e-01 9.470918e-01 1.494143e+00 2.797159e+00 4.704410e+00 5.431311e+00 6.081673e+00 6.881737e+00 6.782691e+00 7.141709e+00 7.359591e+00 6.602984e+00 6.774601e+00 7.637623e+00 7.960372e+00
4.973657e+00 3.587497e+00 2.194257e+00 1.574952e+00 1.427406e+00 1.607512e+00 2.609912e+00 1.700417e+00 2.846534e+00 1.657530e+00 1.971307e+00 2.129597e+00 1.099462e+00 1.979059e+00 9.334332e-01 5.045041e-01 6.737436e-01 1.823651e+00 1.867522e+00 1.115719e+00 1.536180e+00 7.389136e-01 9.621044e-01 8.469951e-01 7.896115e-01 1.681233e+00 5.735340e-01 4.563142e-01 -2.485716e-01 -2.215321e+00 -3.131505e+00 -3.457797e+00 -4.621313e+00 -3.878411e+00 -3.093424e+00 -3.939805e+00 -3.133024e+00 -2.523079e+00 -1.677185e+00 -8.257576e-01 -1.503243e+00 -1.965311e+00 -2.003195e+00 -1.962608e+00 -3.205269e+00 -3.049799e+00 -2.319363e+00 -2.799561e+00 -2.376616e+00 -1.252124e+00 -6.067510e-01 6.371568e-01 1.365771e+00 3.484778e+00 4.727685e+00 4.996954e+00 5.701549e+00 6.221040e+00 6.163876e+00 6.245178e+00 6.719976e+00 7.574434e+00 6.886315e+00 6.499883e+00 7.592526e+00
5.003292e+00 3.323103e+00 2.232020e+00 9.664518e-01 1.577859e-01 4.583375e-01 1.650384e+00 2.071311e+00 1.501234e+00 5.254168e-01 1.088280e-01 1.578808e-01 4.963695e-01 3.065409e-02 4.967111e-01 6.451649e-01 -4.921026e-02 1.114586e+00 1.476547e+00 1.752504e+00 1.088880e+00 2.361771e-01 -3.929055e-01 6.095045e-02 -3.823018e-01 2.060793e-01 6.478895e-01 1.002032e+00 4.837910e-01 -1.504718e+00 -3.369827e+00 -4.251940e+00 -5.403629e+00 -4.674255e+00 -3.821723e+00 -3.869000e+00 -4.037529e+00 -3.648811e+00 -3.253231e+00 -1.692541e+00 -6.804707e-01 -1.951341e+00 -2.562638e+00 -2.827421e+00 -2.823870e+00 -2.575040e+00 -3.030399e+00 -3.022813e+00 -3.067495e+00 -1.795377e+00 -1.117980e+00 1.072144e-01 1.338129e+00 3.337011e+00 4.573362e+00 5.344019e+00 6.279740e+00 6.442579e+00 5.874185e+00 5.871564e+00 6.152424e+00 7.196827e+00 7.244258e+00 6.782136e+00 6.598111e+00
4.892928e+00 4.351840e+00 2.709681e+00 2.123508e+00 2.599691e-01 -2.231813e-01 2.573721e-01 4.925518e-01 5.900816e-01 7.383930e-01 -2.769908e-01 -5.923909e-01 -2.044273e-01 1.576991e-01 -2.356744e-03 -2.831842e-01 -4.886623e-01 -4.817302e-01 9.008292e-02 5.789798e-01 1.957442e-01 -6.054773e-01 -1.503231e+00 -1.472645e+00 -1.630847e+00 -1.157508e+00 -6.652006e-01 -1.360401e+00 -4.874560e-01 -8.874423e-01 -1.955632e+00 -4.338136e+00 -5.710938e+00 -4.678531e+00 -3.949003e+00 -3.305557e+00 -3.097831e+00 -2.905344e+00 -2.510510e+00 -2.425804e+00 -7.868639e-01 -1.936767e+00 -2.875462e+00 -2.694951e+00 -2.939713e+00 -1.903946e+00 -2.397994e+00 -2.845573e+00 -3.259368e+00 -2.808501e+00 -1.921314e+00 -1.111025e+00 6.160563e-01 8.821261e-01 3.019574e+00 3.987222e+00 4.407879e+00 5.151622e+00 4.871924e+00 3.929616e+00 4.252196e+00 5.429967e+00 5.603848e+00 6.124202e+00 5.573983e+00
3.961386e+00 3.747624e+00 3.188520e+00 2.284723e+00 1.136751e+00 -1.087505e-01 -1.312863e+00 -4.506324e-01 -2.996124e-01 -2.757960e-01 2.125680e-01 -8.456620e-01 -1.555319e+00 -1.143912e+00 -8.978215e-01 -1.094435e+00 -9.143067e-01 -6.367461e-01 -4.869116e-01 -2.987794e-01 -4.455353e-01 -1.270795e+00 -2.058530e+00 -2.488524e+00 -2.523711e+00 -2.325753e+00 -2.814921e+00 -2.915838e+00 -2.389183e+00 -2.345205e+00 -1.524119e+00 -3.232427e+00 -5.746212e+00 -5.420360e+00 -4.176302e+00 -3.788116e+00 -2.857328e+00 -2.404941e+00 -2.618427e+00 -2.673354e+00 -1.792269e+00 -2.073565e+00 -2.597164e+00 -2.928771e+00 -2.769262e+00 -1.697688e+00 -1.596652e+00 -2.300692e+00 -3.346085e+00 -2.999951e+00 -3.458992e+00 -1.718239e+00 -7.466313e-01 -2.549439e-01 1.235889e+00 1.680904e+00 2.932901e+00 2.977942e+00 3.075904e+00 3.184281e+00 2.939149e+00 3.203598e+00 4.345223e+00 4.172039e+00 4.489627e+00
3.428485e+00 3.099563e+00 2.071390e+00 1.855679e+00 9.929011e-01 -5.928366e-01 -1.021728e+00 -2.036344e+00 -1.307132e+00 -1.769215e+00 -1.327142e+00 -1.398690e+00 -2.171519e+00 -2.530798e+00 -1.235865e+00 -1.648194e+00 -2.524589e+00 -2.243811e+00 -1.245734e+00 -7.908840e-01 -5.361097e-01 -1.435824e+00 -2.750944e+00 -2.683888e+00 -2.524084e+00 -3.812019e+00 -4.167327e+00 -4.177210e+00 -3.954626e+00 -3.339198e+00 -2.932971e+00 -2.651548e+00 -5.354924e+00 -4.640706e+00 -4.076273e+00 -3.083107e+00 -2.013023e+00 -3.056264e+00 -2.460985e+00 -1.858064e+00 -1.783273e+00 -3.180129e+00 -3.603904e+00 -2.772317e+00 -3.268180e+00 -1.988440e+00 -1.757660e+00 -2.004736e+00 -2.832236e+00 -2.841976e+00 -3.096603e+00 -2.407463e+00 -9.653588e-01 -2.176804e-01 4.878834e-01 1.510566e+00 1.778233e+00 2.106782e+00 1.618031e+00 1.974767e+00 1.490955e+00 1.624663e+00 2.409068e+00 3.694386e+00 4.070632e+00
1.926046e+00 2.168123e+00 1.839741e+00 8.836890e-01 4.505096e-01 -5.764327e-01 -1.549663e+00 -1.852900e+00 -2.383135e+00 -2.225668e+00 -2.454066e+00 -2.026850e+00 -2.100296e+00 -2.434763e+00 -2.538428e+00 -3.022767e+00 -3.187716e+00 -2.918015e+00 -2.873414e+00 -2.590519e+00 -1.531778e+00 -2.644033e+00 -3.199087e+00 -3.599391e+00 -3.298758e+00 -3.773468e+00 -4.796574e+00 -4.752833e+00 -4.748957e+00 -5.039604e+00 -4.410521e+00 -4.328003e+00 -4.153261e+00 -3.986761e+00 -3.966841e+00 -3.255122e+00 -1.982199e+00 -2.705194e+00 -2.826297e+00 -2.774029e+00 -1.964967e+00 -2.632710e+00 -3.663489e+00 -3.284074e+00 -3.366071e+00 -2.821963e+00 -2.022508e+00 -2.137603e+00 -1.901166e+00 -2.319875e+00 -2.283957e+00 -2.409518e+00 -1.900097e+00 -6.794567e-01 7.023281e-01 1.412995e+00 1.395221e+00 1.579688e+00 7.710181e-01 5.805772e-01 5.642225e-01 3.509922e-01 9.672836e-01 2.372046e+00 2.830317e+00
2.139853e+00 2.353910e+00 2.038995e+00 9.434178e-01 4.829390e-01 -6.606521e-01 -1.311079e+00 -2.419289e+00 -2.686730e+00 -3.937716e+00 -3.845212e+00 -3.531804e+00 -3.218860e+00 -2.724503e+00 -3.120103e+00 -3.932740e+00 -4.247610e+00 -4.473579e+00 -4.301738e+00 -3.819956e+00 -3.367012e+00 -3.029472e+00 -3.611092e+00 -4.299586e+00 -4.170280e+00 -3.289077e+00 -3.988342e+00 -4.366366e+00 -4.840017e+00 -5.602875e+00 -5.116545e+00 -5.263466e+00 -5.422616e+00 -4.535392e+00 -4.404295e+00 -4.081788e+00 -2.740582e+00 -2.871022e+00 -2.412622e+00 -2.733447e+00 -1.903321e+00 -1.642229e+00 -1.789483e+00 -3.564924e+00 -2.823550e+00 -2.805926e+00 -1.646198e+00 -1.704203e+00 -1.665247e+00 -1.214327e+00 -1.266200e+00 -1.871364e+00 -1.832724e+00 -1.497955e+00 3.861366e-01 4.943284e-01 1.047889e+00 1.347761e+00 6.869838e-01 1.043814e+00 5.468014e-01 1.150534e+00 6.403393e-01 1.713042e+00 2.511388e+00
2.862808e+00 2.074352e+00 1.799822e+00 1.203418e+00 -3.463434e-02 -1.374655e+00 -1.912281e+00 -2.552719e+00 -3.310311e+00 -3.839546e+00 -4.748464e+00 -4.675615e+00 -4.649714e+00 -4.220948e+00 -3.356868e+00 -4.138159e+00 -5.682570e+00 -5.387586e+00 -4.765287e+00 -4.867156e+00 -4.269543e+00 -3.915299e+00 -4.503147e+00 -4.972779e+00 -5.623631e+00 -4.357158e+00 -3.886724e+00 -4.030896e+00 -4.215493e+00 -4.605949e+00 -5.533635e+00 -5.447801e+00 -5.868642e+00 -5.002493e+00 -3.935056e+00 -3.571745e+00 -3.634807e+00 -2.844243e+00 -2.985837e+00 -3.334897e+00 -2.828462e+00 -2.183957e+00 -5.490123e-01 -1.863178e+00 -2.847944e+00 -2.153261e+00 -2.100334e+00 -1.507035e+00 -1.376406e+00 -1.177506e+00 -1.177778e+00 -1.966223e+00 -1.798177e+00 -1.252891e+00 -7.799044e-01 -5.294293e-01 6.540019e-02 1.029726e+00 1.410680e+00 1.266862e+00 7.508614e-01 5.063181e-01 1.144541e+00 1.838375e+00 2.366700e+00
2.639281e+00 2.574224e+00 2.067117e+00 1.533344e+00 7.744146e-01 -1.176928e+00 -1.814080e+00 -2.149043e+00 -2.786814e+00 -3.324526e+00 -3.931738e+00 -5.015200e+00 -4.854125e+00 -5.299546e+00 -4.018975e+00 -4.504969e+00 -5.915331e+00 -7.183506e+00 -6.463513e+00 -6.430375e+00 -5.967832e+00 -5.005689e+00 -5.406690e+00 -5.444903e+00 -6.224087e+00 -5.352917e+00 -4.392474e+00 -4.371243e+00 -5.030198e+00 -5.007711e+00 -5.688311e+00 -6.122512e+00 -5.930672e+00 -6.100094e+00 -5.036899e+00 -4.027589e+00 -3.877394e+00 -2.902580e+00 -3.203493e+00 -3.023236e+00 -2.912908e+00 -1.976461e+00 -1.189510e+00 -4.911649e-01 -1.464454e+00 -2.006456e+00 -2.015928e+00 -1.535821e+00 -6.395158e-01 -5.010112e-01 -6.119313e-01 -1.348614e+00 -1.352379e+00 -8.888913e-01 -6.131829e-01 -4.780196e-01 -1.754811e-01 1.072560e+00 1.502830e+00 1.922827e+00 1.009325e+00 2.677709e+00 2.431092e+00 2.202457e+00 3.205675e+00
2.742835e+00 2.242681e+00 2.629026e+00 1.662178e+00 7.592166e-01 -7.543459e-01 -1.571996e+00 -2.179673e+00 -2.707268e+00 -3.235857e+00 -3.196104e+00 -3.953321e+00 -5.677689e+00 -5.289901e+00 -5.518693e+00 -5.523006e+00 -6.318440e+00 -7.223294e+00 -8.071739e+00 -7.894110e+00 -7.877075e+00 -7.568262e+00 -6.557316e+00 -7.232969e+00 -7.116019e+00 -6.058255e+00 -5.144530e+00 -5.155956e+00 -5.057101e+00 -5.674600e+00 -5.967562e+00 -6.671056e+00 -6.509645e+00 -6.041524e+00 -5.890502e+00 -5.159323e+00 -4.843689e+00 -4.110989e+00 -2.834571e+00 -2.090595e+00 -2.178403e+00 -1.316623e+00 -9.002914e-01 -6.848350e-01 -4.454294e-01 -3.812958e-01 -1.008817e+00 -6.106983e-02 -4.372930e-02 3.742255e-01 2.183161e-01 -5.096665e-01 -6.203368e-01 9.864484e-02 9.606350e-02 -8.170927e-03 3.108424e-01 1.149688e+00 2.069525e+00 1.875598e+00 2.205099e+00 2.719363e+00 3.605455e+00 2.897239e+00 3.165199e+00
2.743473e+00 2.002049e+00 1.857055e+00 1.283592e+00 9.405842e-01 -3.333939e-01 -1.880656e+00 -1.687421e+00 -1.980687e+00 -4.080561e+00 -3.915640e+00 -4.440507e+00 -5.966931e+00 -7.289330e+00 -7.023430e+00 -7.689877e+00 -7.924407e+00 -7.792444e+00 -8.876707e+00 -8.999385e+00 -8.913378e+00 -9.539093e+00 -8.643395e+00 -7.593484e+00 -7.850132e+00 -7.048124e+00 -6.031209e+00 -5.793712e+00 -5.831513e+00 -5.755219e+00 -6.134052e+00 -6.679214e+00 -7.379954e+00 -5.757945e+00 -6.093657e+00 -6.282032e+00 -5.189613e+00 -4.265908e+00 -2.596529e+00 -2.934382e+00 -2.799303e+00 -1.124341e+00 -7.360578e-01 -1.316476e-01 3.279921e-01 8.860299e-01 2.002190e-01 1.788383e-02 9.794147e-01 1.009666e+00 1.174697e+00 1.450386e+00 6.985291e-01 6.749684e-01 1.537206e-01 5.768671e-01 2.320276e-01 6.567811e-01 1.645666e+00 1.303836e+00 1.237688e+00 2.030327e+00 2.648952e+00 3.561065e+00 3.132112e+00
2.744683e+00 2.117195e+00 1.212653e+00 4.215419e-01 3.723505e-01 -7.494942e-01 -1.628631e+00 -1.882291e+00 -1.616459e+00 -3.648495e+00 -4.920387e+00 -5.549187e+00 -6.423015e+00 -7.537454e+00 -8.237674e+00 -9.478633e+00 -9.968045e+00 -9.930700e+00 -9.679829e+00 -9.641431e+00 -9.183187e+00 -1.047185e+01 -1.136582e+01 -1.067828e+01 -9.196224e+00 -8.123194e+00 -7.171875e+00 -6.885362e+00 -5.924977e+00 -5.913260e+00 -6.280540e+00 -6.732187e+00 -7.816823e+00 -7.204292e+00 -5.970558e+00 -6.092076e+00 -6.099351e+00 -4.943191e+00 -3.093241e+00 -2.432257e+00 -2.696995e+00 -9.848552e-01 2.945430e-01 1.045486e+00 1.161233e+00 7.689855e-01 1.289585e+00 1.916796e+00 1.989877e+00 2.590344e+00 3.062941e+00 2.414779e+00 2.395084e+00 1.565903e+00 9.750336e-01 7.662356e-01 8.899081e-01 1.544483e+00 1.294044e+00 7.076805e-01 1.033764e+00 9.006591e-01 1.316892e+00 1.782985e+00 2.554177e+00
1.763277e+00 6.895038e-01 4.142398e-01 2.789409e-01 1.090987e-01 -1.357201e-01 -8.941586e-01 -1.903216e+00 -1.457089e+00 -2.450981e+00 -4.095987e+00 -5.758436e+00 -6.997706e+00 -8.167929e+00 -9.029228e+00 -9.857588e+00 -1.163158e+01 -1.085497e+01 -1.079816e+01 -1.116925e+01 -1.054245e+01 -1.045940e+01 -1.157681e+01 -1.219179e+01 -1.067699e+01 -1.013076e+01 -8.623937e+00 -7.540167e+00 -6.903872e+00 -7.004739e+00 -7.228716e+00 -6.672390e+00 -7.325195e+00 -8.130429e+00 -7.022533e+00 -6.909662e+00 -6.233636e+00 -4.764028e+00 -3.945409e+00 -3.297262e+00 -3.089021e+00 -1.939412e+00 -1.182529e+00 6.241699e-01 1.063953e+00 2.307580e+00 1.817662e+00 3.438885e+00 2.835842e+00 3.536906e+00 3.304503e+00 4.456887e+00 3.907220e+00 2.889680e+00 2.325717e+00 1.731168e+00 1.439876e+00 1.289441e+00 1.302984e+00 1.087885e+00 6.632008e-01 1.516072e+00 1.033355e+00 1.713508e+00 1.920248e+00
8.311367e-01 -3.894396e-01 -7.733500e-01 -7.530223e-01 -8.060477e-01 -4.011594e-01 -9.846814e-01 -1.076371e+00 -2.043356e+00 -2.886083e+00 -3.814104e+00 -5.500174e+00 -7.038704e+00 -8.808860e+00 -1.052533e+01 -1.098456e+01 -1.231839e+01 -1.238733e+01 -1.202888e+01 -1.206045e+01 -1.191853e+01 -1.216553e+01 -1.183481e+01 -1.209298e+01 -1.302718e+01 -1.198589e+01 -1.018662e+01 -9.162778e+00 -8.693637e+00 -9.269704e+00 -8.952862e+00 -8.055716e+00 -7.365967e+00 -7.667087e+00 -7.444993e+00 -7.639265e+00 -7.074043e+00 -5.665857e+00 -4.251710e+00 -3.514207e+00 -3.077958e+00 -2.569468e+00 -1.771501e+00 -7.765788e-01 1.012214e+00 1.661000e+00 2.608096e+00 3.296620e+00 4.602703e+00 4.664372e+00 4.250300e+00 5.209383e+00 5.207588e+00 4.065147e+00 3.201886e+00 2.985420e+00 2.385760e+00 1.602320e+00 9.471263e-01 5.696621e-01 5.140389e-01 1.021708e+00 1.732160e+00 2.233857e+00 2.181888e+00
1.983687e+00 7.735182e-02 -7.601845e-01 -1.327626e+00 -1.421630e+00 -2.482439e+00 -2.072661e+00 -1.507869e+00 -2.443109e+00 -3.300583e+00 -4.166525e+00 -5.390474e+00 -7.227638e+00 -8.450245e+00 -1.036532e+01 -1.159215e+01 -1.213958e+01 -1.276902e+01 -1.306347e+01 -1.270506e+01 -1.265254e+01 -1.306666e+01 -1.308418e+01 -1.223526e+01 -1.343360e+01 -1.309481e+01 -1.145273e+01 -1.000587e+01 -1.006466e+01 -7.804996e+00 -8.181264e+00 -8.681372e+00 -7.368539e+00 -7.485278e+00 -6.835422e+00 -6.733073e+00 -6.338817e+00 -5.861740e+00 -4.642778e+00 -3.220357e+00 -3.092212e+00 -2.772910e+00 -2.352635e+00 -1.344235e+00 -1.658926e-01 1.415581e+00 2.497914e+00 3.150400e+00 4.549855e+00 4.264773e+00 4.383451e+00 4.592849e+00 4.812213e+00 5.002239e+00 4.118633e+00 2.632381e+00 3.108857e+00 1.371472e+00 1.115117e+00 6.912286e-01 8.105792e-01 9.708569e-02 9.660689e-01 1.444756e+00 2.000534e+00
2.194652e+00 4.901808e-01 -1.421357e+00 -1.984770e+00 -2.306994e+00 -2.399239e+00 -3.257311e+00 -2.611011e+00 -2.422531e+00 -3.289083e+00 -4.373057e+00 -5.846659e+00 -7.450227e+00 -8.476282e+00 -9.256265e+00 -1.122384e+01 -1.265221e+01 -1.361321e+01 -1.364216e+01 -1.364540e+01 -1.416542e+01 -1.384012e+01 -1.416224e+01 -1.379742e+01 -1.349469e+01 -1.327445e+01 -1.342015e+01 -1.161956e+01 -1.051460e+01 -9.046249e+00 -7.745623e+00 -7.770077e+00 -8.135987e+00 -7.868576e+00 -7.217918e+00 -7.046794e+00 -6.325241e+00 -5.487619e+00 -4.171226e+00 -3.125861e+00 -2.768332e+00 -2.862053e+00 -2.282047e+00 -1.642985e+00 -6.861709e-01 9.091465e-01 1.761644e+00 3.017255e+00 3.621775e+00 4.021808e+00 4.271242e+00 4.391141e+00 4.831682e+00 4.837725e+00 4.644917e+00 3.546808e+00 3.014719e+00 2.673629e+00 1.347897e+00 8.420153e-01 4.203169e-01 1.410604e-01 5.355729e-01 5.047676e-01 1.082818e+00
2.355505e+00 1.012342e+00 -1.607057e+00 -1.917741e+00 -2.540759e+00 -3.128249e+00 -3.865720e+00 -4.296856e+00 -3.978353e+00 -3.492593e+00 -5.345605e+00 -5.616765e+00 -6.984125e+00 -8.376181e+00 -9.114883e+00 -1.089146e+01 -1.177970e+01 -1.345723e+01 -1.358898e+01 -1.461231e+01 -1.474075e+01 -1.500260e+01 -1.500715e+01 -1.393301e+01 -1.434697e+01 -1.300495e+01 -1.334181e+01 -1.325560e+01 -1.145006e+01 -1.076013e+01 -9.049099e+00 -7.889290e+00 -8.161637e+00 -7.811354e+00 -7.114562e+00 -6.739308e+00 -6.562384e+00 -5.703242e+00 -4.905011e+00 -3.903001e+00 -3.043302e+00 -3.070680e+00 -2.542694e+00 -2.627526e+00 -1.807820e+00 -2.504593e-01 7.994908e-01 2.733680e+00 2.791321e+00 4.504895e+00 3.995775e+00 4.822628e+00 4.605476e+00 5.386196e+00 5.409660e+00 4.513962e+00 3.879159e+00 3.636129e+00 2.302890e+00 1.017596e+00 5.045451e-01 8.852015e-01 6.285508e-01 5.141045e-01 1.349238e+00
2.637832e+00 1.382605e+00 -7.953556e-01 -1.191217e+00 -2.247994e+00 -3.513224e+00 -4.009683e+00 -4.428813e+00 -4.764155e+00 -5.215590e+00 -5.349376e+00 -6.572687e+00 -7.303082e+00 -7.965155e+00 -9.067039e+00 -1.038512e+01 -1.181576e+01 -1.312750e+01 -1.393768e+01 -1.467392e+01 -1.530661e+01 -1.521944e+01 -1.495196e+01 -1.501088e+01 -1.444995e+01 -1.365044e+01 -1.268768e+01 -1.245611e+01 -1.230987e+01 -1.120801e+01 -1.063900e+01 -9.553053e+00 -7.663995e+00 -7.726017e+00 -6.903561e+00 -6.588699e+00 -6.380042e+00 -5.862181e+00 -5.516041e+00 -4.820038e+00 -3.221214e+00 -2.891208e+00 -2.808142e+00 -2.508755e+00 -2.283543e+00 -1.821265e+00 -3.954225e-01 8.557076e-01 2.841496e+00 3.875690e+00 4.653574e+00 4.348798e+00 4.976635e+00 5.024719e+00 5.973452e+00 5.292248e+00 5.168838e+00 5.000549e+00 4.045150e+00 3.115983e+00 1.287488e+00 7.271121e-01 8.083597e-01 1.151876e+00 9.387056e-01
1.878146e+00 1.228891e+00 -4.480300e-01 -1.149667e+00 -2.589744e+00 -3.109746e+00 -4.108762e+00 -5.371610e+00 -5.849652e+00 -5.444296e+00 -5.924744e+00 -6.700398e+00 -7.381817e+00 -9.311102e+00 -1.017550e+01 -1.063956e+01 -1.182686e+01 -1.159518e+01 -1.342211e+01 -1.400923e+01 -1.508906e+01 -1.453280e+01 -1.466515e+01 -1.458490e+01 -1.525711e+01 -1.406650e+01 -1.289269e+01 -1.280179e+01 -1.216874e+01 -1.216843e+01 -1.132451e+01 -1.015371e+01 -8.737870e+00 -7.844187e+00 -7.942516e+00 -7.228477e+00 -6.495239e+00 -6.318601e+00 -6.013224e+00 -4.767521e+00 -3.368574e+00 -2.997427e+00 -3.101817e+00 -3.060848e+00 -2.711398e+00 -2.536823e+00 -1.574688e+00 -2.801365e-01 2.060715e+00 3.080238e+00 3.551669e+00 4.852141e+00 4.527626e+00 4.990907e+00 6.250812e+00 5.830531e+00 5.894519e+00 5.275608e+00 5.345432e+00 3.143987e+00 1.814921e+00 2.705002e+00 2.259296e+00 1.341045e+00 1.740020e+00
1.507454e+00 7.604945e-01 7.438125e-01 -1.133248e+00 -2.345388e+00 -2.965229e+00 -4.471852e+00 -5.279134e+00 -5.971889e+00 -6.754855e+00 -7.110213e+00 -7.393629e+00 -7.644420e+00 -9.388427e+00 -1.098306e+01 -1.156193e+01 -1.249309e+01 -1.215123e+01 -1.216322e+01 -1.313549e+01 -1.392965e+01 -1.449099e+01 -1.475702e+01 -1.457468e+01 -1.507013e+01 -1.423030e+01 -1.317629e+01 -1.303105e+01 -1.278580e+01 -1.230699e+01 -1.207258e+01 -1.039566e+01 -9.566182e+00 -9.459644e+00 -8.408760e+00 -7.443290e+00 -7.277865e+00 -6.824865e+00 -5.928053e+00 -4.712544e+00 -4.391069e+00 -3.869819e+00 -3.129338e+00 -3.668600e+00 -3.759961e+00 -3.556045e+00 -2.828335e+00 -1.591673e+00 5.678185e-01 1.596834e+00 3.246989e+00 3.748034e+00 4.381497e+00 4.603244e+00 5.538637e+00 6.175884e+00 5.981723e+00 5.731217e+00 5.942466e+00 3.706537e+00 2.203803e+00 3.042927e+00 3.185741e+00 2.458683e+00 2.450753e+00
1.440080e+00 1.558799e+00 1.081011e+00 5.441427e-01 -1.032976e+00 -2.583672e+00 -3.627100e+00 -4.742334e+00 -5.635470e+00 -6.236397e+00 -6.508905e+00 -7.777988e+00 -8.031987e+00 -9.048590e+00 -1.042178e+01 -1.204823e+01 -1.334851e+01 -1.333427e+01 -1.307293e+01 -1.276923e+01 -1.397355e+01 -1.496128e+01 -1.527942e+01 -1.423746e+01 -1.460832e+01 -1.496533e+01 -1.328600e+01 -1.251320e+01 -1.311994e+01 -1.269605e+01 -1.231031e+01 -1.166712e+01 -1.044738e+01 -9.869949e+00 -9.806161e+00 -9.166706e+00 -8.732758e+00 -7.515667e+00 -6.735331e+00 -6.371095e+00 -5.149693e+00 -5.444458e+00 -4.079861e+00 -3.737301e+00 -4.152819e+00 -3.445151e+00 -3.146693e+00 -2.629619e+00 -2.542110e-01 -4.065127e-01 1.127761e+00 2.214414e+00 3.381486e+00 3.992778e+00 4.300869e+00 5.473111e+00 5.857744e+00 5.442651e+00 5.584701e+00 5.772493e+00 3.523402e+00 3.498153e+00 4.264476e+00 3.509467e+00 3.125721e+00
2.184974e+00 1.301093e+00 1.119121e+00 -1.119134e-01 -5.461537e-01 -2.524528e+00 -3.683133e+00 -4.567296e+00 -5.714887e+00 -6.392290e+00 -6.846680e+00 -7.738658e+00 -7.648244e+00 -9.099128e+00 -9.970119e+00 -1.151461e+01 -1.320655e+01 -1.367914e+01 -1.391924e+01 -1.361934e+01 -1.427000e+01 -1.484065e+01 -1.532480e+01 -1.494219e+01 -1.469626e+01 -1.441911e+01 -1.429657e+01 -1.362097e+01 -1.279174e+01 -1.196703e+01 -1.181366e+01 -1.097775e+01 -1.040962e+01 -1.018455e+01 -1.041406e+01 -1.017795e+01 -9.735866e+00 -9.395741e+00 -8.306305e+00 -7.540697e+00 -6.539257e+00 -6.404378e+00 -5.739406e+00 -4.366658e+00 -3.724895e+00 -3.107256e+00 -3.094820e+00 -2.938802e+00 -1.791535e+00 -9.860189e-01 -6.056076e-01 9.415126e-01 2.170225e+00 2.824285e+00 3.574870e+00 4.869721e+00 5.403614e+00 4.890566e+00 5.373701e+00 5.046484e+00 4.906082e+00 4.800029e+00 4.589266e+00 3.567966e+00 3.249628e+00
1.945146e+00 1.703235e+00 1.709105e+00 6.735766e-01 1.853279e-01 -1.497339e+00 -3.490161e+00 -4.383338e+00 -5.311243e+00 -5.738417e+00 -6.308453e+00 -6.608889e+00 -6.556053e+00 -7.543268e+00 -9.103791e+00 -1.022358e+01 -1.138591e+01 -1.222098e+01 -1.232433e+01 -1.276405e+01 -1.372909e+01 -1.340143e+01 -1.434165e+01 -1.429736e+01 -1.366987e+01 -1.540037e+01 -1.538395e+01 -1.421757e+01 -1.403346e+01 -1.188155e+01 -1.151860e+01 -1.204518e+01 -1.125917e+01 -1.041944e+01 -9.588002e+00 -1.020253e+01 -9.543219e+00 -9.632257e+00 -8.874236e+00 -7.832248e+00 -7.409739e+00 -7.563508e+00 -7.163920e+00 -6.286967e+00 -5.609387e+00 -3.958180e+00 -4.197937e+00 -2.705054e+00 -2.265197e+00 -1.427166e+00 -9.326075e-01 -1.313424e+00 4.259498e-02 2.151103e+00 3.002368e+00 3.524682e+00 4.343052e+00 5.361711e+00 5.023382e+00 5.832352e+00 4.834898e+00 3.846781e+00 3.597681e+00 4.571954e+00 3.186562e+00
1.071778e+00 1.145001e+00 2.058476e+00 9.003374e-01 5.006530e-01 -1.087823e+00 -2.978282e+00 -3.438873e+00 -4.732629e+00 -5.196605e+00 -6.562646e+00 -6.342397e+00 -6.223490e+00 -6.496433e+00 -7.371653e+00 -8.702601e+00 -1.025233e+01 -1.104116e+01 -1.135834e+01 -1.236661e+01 -1.248707e+01 -1.199016e+01 -1.239809e+01 -1.200201e+01 -1.227427e+01 -1.426581e+01 -1.602507e+01 -1.568217e+01 -1.505629e+01 -1.373957e+01 -1.169226e+01 -1.222814e+01 -1.188956e+01 -1.045718e+01 -9.451879e+00 -1.007236e+01 -9.834514e+00 -9.152531e+00 -9.259853e+00 -7.980723e+00 -7.486287e+00 -8.135799e+00 -8.711781e+00 -8.068802e+00 -7.253396e+00 -5.939585e+00 -4.411728e+00 -3.596651e+00 -2.574647e+00 -2.391995e+00 -2.010057e+00 -1.225217e+00 -1.246681e+00 3.356091e-01 2.435439e+00 2.306449e+00 3.175176e+00 3.616730e+00 4.406145e+00 5.269455e+00 5.468024e+00 4.081949e+00 3.453905e+00 3.688112e+00 4.060026e+00
1.489671e-01 3.197239e-01 9.928225e-01 1.933519e+00 1.124934e+00 -4.026439e-01 -1.807348e+00 -3.740720e+00 -4.975057e+00 -4.442557e+00 -5.315610e+00 -5.770315e+00 -6.187950e+00 -6.450520e+00 -6.767164e+00 -7.893228e+00 -9.824493e+00 -1.014072e+01 -1.024748e+01 -9.948529e+00 -1.029107e+01 -1.134442e+01 -1.163838e+01 -1.170268e+01 -1.109253e+01 -1.277612e+01 -1.524317e+01 -1.562085e+01 -1.537138e+01 -1.422842e+01 -1.281410e+01 -1.195169e+01 -1.224686e+01 -1.121590e+01 -9.625792e+00 -9.608276e+00 -1.025184e+01 -1.019475e+01 -9.401172e+00 -9.020991e+00 -8.415928e+00 -8.648605e+00 -8.923990e+00 -8.888670e+00 -7.900207e+00 -7.100577e+00 -4.982609e+00 -4.205542e+00 -3.170642e+00 -2.851806e+00 -2.940349e+00 -2.659926e+00 -1.587613e+00 2.067796e-01 1.259503e+00 2.160819e+00 2.363383e+00 2.632062e+00 3.764157e+00 4.663916e+00 4.744388e+00 4.719790e+00 4.254776e+00 3.376423e+00 3.325560e+00
-2.495967e-01 -6.319723e-02 2.261020e-01 6.098292e-01 9.642790e-01 -1.502652e-01 -1.480410e+00 -3.564370e+00 -5.104286e+00 -4.792524e+00 -4.992058e+00 -5.025257e+00 -5.889816e+00 -6.402688e+00 -7.030114e+00 -7.488310e+00 -8.801400e+00 -8.848486e+00 -9.104154e+00 -9.269572e+00 -8.761501e+00 -9.146506e+00 -1.040694e+01 -1.005523e+01 -1.029044e+01 -1.178645e+01 -1.402300e+01 -1.471578e+01 -1.583527e+01 -1.503573e+01 -1.426385e+01 -1.286996e+01 -1.240753e+01 -1.161840e+01 -1.027376e+01 -1.007047e+01 -9.904179e+00 -9.638564e+00 -1.026961e+01 -9.936021e+00 -8.902543e+00 -9.613396e+00 -9.687108e+00 -9.213764e+00 -9.078026e+00 -7.749931e+00 -6.228645e+00 -5.507082e+00 -4.022907e+00 -3.643511e+00 -3.118608e+00 -2.722114e+00 -2.875828e+00 -1.469541e+00 6.625935e-01 1.547924e+00 2.339469e+00 2.078264e+00 2.592476e+00 3.140243e+00 4.474777e+00 4.468537e+00 4.125078e+00 3.313574e+00 3.044443e+00
-1.225831e-01 -4.837347e-01 -2.472074e-01 3.847696e-01 2.581922e-01 -1.406023e-01 -1.799096e+00 -2.935971e+00 -3.933148e+00 -5.447340e+00 -5.188738e+00 -4.871806e+00 -5.234086e+00 -6.027200e+00 -6.426409e+00 -6.985342e+00 -8.019038e+00 -8.082165e+00 -8.984068e+00 -8.290675e+00 -8.635362e+00 -8.788540e+00 -9.714909e+00 -9.745793e+00 -9.282810e+00 -9.707452e+00 -1.153355e+01 -1.434173e+01 -1.446093e+01 -1.623973e+01 -1.539634e+01 -1.422575e+01 -1.375228e+01 -1.225241e+01 -1.155526e+01 -1.101561e+01 -1.005179e+01 -9.859245e+00 -9.393613e+00 -9.969653e+00 -8.750352e+00 -8.974979e+00 -8.889491e+00 -9.155668e+00 -9.160049e+00 -8.850050e+00 -7.394046e+00 -6.813169e+00 -5.561959e+00 -4.736340e+00 -3.814708e+00 -2.831544e+00 -2.680973e+00 -3.026726e+00 -1.254731e+00 1.651367e-01 1.620209e+00 2.363908e+00 1.831745e+00 2.338709e+00 3.154825e+00 3.703001e+00 3.527231e+00 2.772150e+00 1.930714e+00
-1.096094e-01 2.344412e-01 2.508638e-01 -2.360034e-01 1.784091e-01 -9.184374e-01 -1.573427e+00 -2.518810e+00 -3.477950e+00 -3.655861e+00 -4.794294e+00 -5.010932e+00 -5.485950e+00 -5.333594e+00 -5.643038e+00 -6.400594e+00 -7.055117e+00 -7.439922e+00 -8.157715e+00 -8.298210e+00 -8.284262e+00 -8.623805e+00 -8.399015e+00 -8.518490e+00 -9.125947e+00 -8.918680e+00 -9.508176e+00 -1.179963e+01 -1.404476e+01 -1.512137e+01 -1.565155e+01 -1.535154e+01 -1.495772e+01 -1.446841e+01 -1.300673e+01 -1.190029e+01 -1.091818e+01 -1.002423e+01 -9.333715e+00 -8.946419e+00 -9.380884e+00 -9.189871e+00 -8.950642e+00 -9.152903e+00 -8.584127e+00 -8.400536e+00 -8.209518e+00 -8.002315e+00 -7.602330e+00 -6.676559e+00 -4.970888e+00 -3.952381e+00 -2.937723e+00 -2.649171e+00 -2.271015e+00 -1.043861e+00 1.161925e-01 8.137658e-01 1.842573e+00 1.878039e+00 1.376196e+00 2.607344e+00 3.031538e+00 1.511441e+00 8.205834e-01
4.155389e-01 -5.710946e-02 2.767721e-01 5.258960e-01 -1.889617e-01 -8.754213e-02 -1.633437e+00 -2.353355e+00 -2.935087e+00 -3.345791e+00 -4.186896e+00 -3.955886e+00 -4.912952e+00 -5.293823e+00 -5.076962e+00 -5.570264e+00 -6.319801e+00 -7.037426e+00 -7.122843e+00 -8.760934e+00 -8.664058e+00 -7.652036e+00 -7.644848e+00 -8.001071e+00 -8.014832e+00 -8.633321e+00 -8.856646e+00 -1.019691e+01 -1.179534e+01 -1.310161e+01 -1.408820e+01 -1.557826e+01 -1.561516e+01 -1.416185e+01 -1.322394e+01 -1.242080e+01 -1.190536e+01 -1.087755e+01 -1.038899e+01 -8.971679e+00 -8.793872e+00 -8.892026e+00 -9.007270e+00 -9.253477e+00 -9.154664e+00 -9.082014e+00 -8.855188e+00 -8.517966e+00 -8.666930e+00 -7.414562e+00 -5.990389e+00 -4.989004e+00 -3.290794e+00 -3.513299e+00 -2.792256e+00 -2.266368e+00 -4.455656e-01 -2.402619e-01 2.355660e-01 7.904502e-01 8.135696e-01 1.048316e+00 1.560093e+00 1.377047e+00 6.937167e-01
0.000000e+00 -1.611036e-01 -2.623238e-01 1.501904e-01 -7.649986e-02 -3.937781e-02 -8.844940e-01 -1.313010e+00 -2.451492e+00 -2.344901e+00 -2.780025e+00 -3.765088e+00 -4.108405e+00 -4.029076e+00 -4.443301e+00 -5.134243e+00 -6.312749e+00 -6.316328e+00 -6.861506e+00 -7.469263e+00 -8.903530e+00 -8.109772e+00 -7.677405e+00 -7.940603e+00 -7.546904e+00 -7.840754e+00 -8.899988e+00 -9.241313e+00 -1.038277e+01 -1.172136e+01 -1.220147e+01 -1.360615e+01 -1.585631e+01 -1.488239e+01 -1.357905e+01 -1.312414e+01 -1.204836e+01 -1.120910e+01 -1.108913e+01 -1.001699e+01 -8.809539e+00 -8.173442e+00 -8.391749e+00 -9.206887e+00 -9.901363e+00 -9.372481e+00 -8.913548e+00 -9.467137e+00 -9.218516e+00 -8.541300e+00 -7.585169e+00 -6.054632e+00 -4.108308e+00 -3.733272e+00 -3.263647e+00 -2.077556e+00 -1.435099e+00 -4.993045e-01 -4.599921e-01 2.051051e-01 -2.897830e-02 -2.250539e-01 5.652343e-01 3.998625e-01 0.000000e+00
