ncols 65
nrows 65
xllcorner 0.0
yllcorner 0.0
cellsize 10
nodata_value 0
0.000000e+00 1.711656e-02 -7.906872e-01 -2.121567e-01 -1.066684e-01 1.958175e-01 1.431881e+00 2.355829e+00 2.412711e+00 1.968128e+00 1.540287e+00 1.404708e+00 2.025492e+00 2.322307e+00 3.182197e+00 2.436509e+00 2.550811e+00 3.019354e+00 3.828119e+00 5.160865e+00 6.885618e+00 7.113768e+00 7.839251e+00 7.418275e+00 7.339067e+00 8.718096e+00 9.335607e+00 9.883699e+00 1.128031e+01 1.176796e+01 1.302957e+01 1.368018e+01 1.470894e+01 1.296149e+01 1.204161e+01 1.199777e+01 1.112081e+01 1.026567e+01 8.806845e+00 7.160682e+00 6.064452e+00 5.758304e+00 6.005303e+00 5.145786e+00 5.277787e+00 5.039755e+00 4.989793e+00 4.363018e+00 3.989142e+00 3.815628e+00 4.471686e+00 4.755447e+00 4.859085e+00 3.766207e+00 3.658974e+00 3.270701e+00 3.725681e+00 3.490014e+00 3.842248e+00 3.284042e+00 2.881124e+00 2.030896e+00 1.961030e+00 1.096795e+00 0.000000e+00
5.053255e-02 -4.300823e-01 -8.871715e-01 -1.001443e+00 -1.202960e+00 -9.590833e-01 4.918184e-02 -1.574676e-01 5.667100e-01 2.067125e+00 8.286891e-01 2.004517e+00 2.104829e+00 9.098916e-01 1.609628e+00 2.276745e+00 1.590283e+00 3.750996e+00 4.036174e+00 3.907945e+00 5.918724e+00 6.927156e+00 7.435028e+00 7.029334e+00 7.542708e+00 8.368877e+00 9.228389e+00 1.072916e+01 1.208230e+01 1.149856e+01 1.233643e+01 1.381124e+01 1.434902e+01 1.416769e+01 1.279198e+01 1.134366e+01 1.046251e+01 1.101820e+01 9.206328e+00 8.967801e+00 7.327019e+00 5.917067e+00 6.247248e+00 5.757626e+00 4.912203e+00 5.194355e+00 4.947792e+00 4.898374e+00 4.269304e+00 4.230456e+00 4.186765e+00 5.140136e+00 4.757836e+00 4.100366e+00 3.946034e+00 2.892479e+00 3.500265e+00 3.557623e+00 3.380592e+00 3.059336e+00 1.694195e+00 1.387042e+00 1.513221e+00 6.538062e-01 -7.851607e-01
1.077564e+00 5.660028e-01 -7.075994e-01 -1.347856e+00 -1.634859e+00 -2.296596e+00 -2.104392e+00 -1.548990e+00 -1.638627e+00 -5.785362e-01 1.025917e+00 1.542240e+00 1.529027e+00 1.166476e+00 3.182842e-01 7.930305e-01 9.400608e-01 2.412050e+00 4.031715e+00 4.240437e+00 4.537913e+00 5.728501e+00 6.384846e+00 6.980013e+00 6.865819e+00 8.104320e+00 9.430183e+00 1.103042e+01 1.235195e+01 1.223835e+01 1.256475e+01 1.346204e+01 1.359630e+01 1.360644e+01 1.296225e+01 1.211495e+01 1.034105e+01 9.801227e+00 1.006215e+01 9.374655e+00 8.160323e+00 7.046049e+00 6.299927e+00 5.447922e+00 4.762617e+00 4.155274e+00 4.128873e+00 4.088879e+00 4.701167e+00 4.471856e+00 4.816521e+00 5.534795e+00 5.296152e+00 5.076145e+00 4.304284e+00 3.503451e+00 2.289511e+00 2.926059e+00 3.147452e+00 1.956264e+00 1.435250e+00 1.437470e+00 6.129866e-01 -3.719456e-01 -7.772385e-01
1.149412e+00 5.251696e-01 -6.814580e-01 -1.510879e+00 -1.335059e+00 -2.730256e+00 -2.511370e+00 -3.240656e+00 -3.195443e+00 -1.644081e+00 -8.281579e-02 7.212462e-01 1.375504e+00 2.443076e-01 -2.337177e-01 -7.318830e-01 -2.726594e-01 8.438109e-01 2.130390e+00 3.914521e+00 4.525432e+00 4.299645e+00 4.718206e+00 5.611800e+00 5.912479e+00 7.363150e+00 8.831053e+00 1.113299e+01 1.253273e+01 1.262704e+01 1.323845e+01 1.250500e+01 1.329179e+01 1.296698e+01 1.288942e+01 1.164779e+01 1.113028e+01 1.073394e+01 1.089001e+01 1.006819e+01 8.666930e+00 6.966768e+00 6.283887e+00 5.574280e+00 5.024600e+00 4.642755e+00 4.571780e+00 3.912463e+00 4.037729e+00 4.721387e+00 4.254277e+00 5.152823e+00 5.607419e+00 5.108675e+00 4.822609e+00 3.242674e+00 2.001292e+00 2.891462e+00 3.208195e+00 2.282821e+00 1.399816e+00 4.800613e-01 2.789312e-01 -3.900377e-01 -1.005807e+00
1.627796e+00 3.195824e-01 -1.441269e-01 -1.147026e+00 -1.647156e+00 -2.977902e+00 -3.316772e+00 -3.321764e+00 -3.808036e+00 -2.944263e+00 -1.966194e+00 -9.757461e-01 3.312744e-01 3.633326e-01 -4.416290e-01 -1.764052e+00 -2.302245e+00 -4.970013e-01 8.199434e-01 2.416783e+00 4.084298e+00 3.369149e+00 3.412486e+00 4.225440e+00 4.603710e+00 6.174684e+00 8.075171e+00 1.038470e+01 1.253802e+01 1.311244e+01 1.319615e+01 1.337814e+01 1.299805e+01 1.267094e+01 1.218892e+01 1.202104e+01 1.098109e+01 1.123010e+01 1.099768e+01 1.046519e+01 9.410227e+00 7.868952e+00 6.429840e+00 6.103396e+00 4.978527e+00 4.979272e+00 5.453030e+00 4.691913e+00 3.963395e+00 4.423223e+00 4.387512e+00 4.729561e+00 5.317625e+00 5.163013e+00 4.467807e+00 3.046185e+00 2.591773e+00 2.128940e+00 2.638394e+00 2.393952e+00 1.632786e+00 8.536234e-01 -4.405500e-01 -4.207133e-01 -1.082137e+00
1.498150e+00 4.732338e-01 -4.541084e-01 -2.066253e+00 -2.085972e+00 -2.887597e+00 -4.036397e+00 -4.030656e+00 -3.815797e+00 -4.332694e+00 -3.112385e+00 -1.762519e+00 -7.124062e-01 -1.057338e+00 -1.895906e+00 -2.080519e+00 -3.910545e+00 -1.175949e+00 -2.596329e-01 1.659230e+00 2.296828e+00 4.419409e+00 3.715691e+00 4.259180e+00 5.006307e+00 6.330075e+00 8.093925e+00 9.093500e+00 1.108039e+01 1.284845e+01 1.334915e+01 1.360615e+01 1.406794e+01 1.271783e+01 1.177534e+01 1.201469e+01 1.137884e+01 1.088788e+01 1.114226e+01 1.016114e+01 9.691425e+00 7.718183e+00 6.107030e+00 5.676659e+00 5.198424e+00 4.502893e+00 4.803365e+00 4.586119e+00 3.873714e+00 3.382379e+00 3.709733e+00 4.126076e+00 4.691465e+00 5.206423e+00 4.795641e+00 3.937251e+00 2.917179e+00 1.643837e+00 1.614979e+00 8.599507e-01 8.824409e-01 4.449216e-01 -5.063667e-01 -4.535430e-01 -7.574032e-01
7.068052e-01 6.851359e-01 -2.114962e-01 -2.037159e+00 -3.393954e+00 -3.970906e+00 -4.196755e+00 -3.977419e+00 -4.616748e+00 -5.371233e+00 -5.168728e+00 -3.584483e+00 -1.629260e+00 -2.246925e+00 -3.178480e+00 -3.644618e+00 -4.529556e+00 -2.230083e+00 -3.494706e-01 4.348078e-01 1.501096e+00 2.812085e+00 4.966846e+00 5.416756e+00 5.116866e+00 6.937421e+00 7.998326e+00 9.032064e+00 1.031673e+01 1.226993e+01 1.403096e+01 1.380524e+01 1.434387e+01 1.278381e+01 1.182305e+01 1.210074e+01 1.208501e+01 1.183725e+01 1.065397e+01 1.068609e+01 9.745736e+00 8.203005e+00 6.118489e+00 5.266175e+00 4.971151e+00 4.115648e+00 3.509223e+00 3.624749e+00 3.812763e+00 2.960615e+00 3.071337e+00 3.437046e+00 4.380266e+00 4.544134e+00 5.413166e+00 4.229875e+00 3.614300e+00 2.780582e+00 1.544706e+00 6.687907e-01 -2.530347e-01 -1.039541e-01 -7.352377e-01 -1.093956e+00 -1.202122e+00
5.499703e-01 -1.233923e-01 -7.607254e-01 -1.854482e+00 -3.906422e+00 -4.946625e+00 -5.470221e+00 -5.324960e+00 -5.044957e+00 -5.002679e+00 -5.343631e+00 -5.321188e+00 -3.631215e+00 -2.849299e+00 -4.028992e+00 -4.255261e+00 -4.553541e+00 -3.316617e+00 -1.623824e+00 -3.783349e-01 1.059601e+00 1.759542e+00 3.711299e+00 5.019692e+00 5.121856e+00 6.192243e+00 7.509516e+00 8.438505e+00 9.474356e+00 1.077107e+01 1.240247e+01 1.409605e+01 1.431800e+01 1.328782e+01 1.268916e+01 1.204777e+01 1.190889e+01 1.129182e+01 1.018243e+01 1.016371e+01 9.949141e+00 7.723369e+00 6.282943e+00 4.961128e+00 5.121155e+00 4.436886e+00 4.174279e+00 3.372386e+00 3.796528e+00 3.726854e+00 3.763522e+00 3.039760e+00 4.474379e+00 3.424816e+00 4.289378e+00 5.122574e+00 4.252745e+00 3.051369e+00 2.108570e+00 -2.203162e-02 -1.076160e-01 -1.415818e+00 -1.174761e+00 -1.443457e+00 -2.251963e+00
1.313438e+00 -2.378805e-01 -1.149376e+00 -2.722115e+00 -3.682452e+00 -4.885698e+00 -5.921648e+00 -5.927166e+00 -6.372471e+00 -6.416113e+00 -6.018163e+00 -5.601355e+00 -4.963070e+00 -4.787314e+00 -4.337652e+00 -5.241456e+00 -5.302956e+00 -3.981459e+00 -1.989149e+00 -7.970524e-01 -3.561098e-01 8.670099e-01 1.505891e+00 3.415125e+00 4.612292e+00 6.367552e+00 7.925277e+00 8.450736e+00 9.568554e+00 1.050578e+01 1.123639e+01 1.259170e+01 1.461123e+01 1.345743e+01 1.289840e+01 1.233898e+01 1.145720e+01 1.084230e+01 9.980658e+00 9.724483e+00 9.541508e+00 8.455360e+00 6.662879e+00 6.019195e+00 4.589940e+00 4.981148e+00 4.570738e+00 4.405403e+00 3.552368e+00 3.203585e+00 3.484803e+00 3.285991e+00 3.843510e+00 3.267149e+00 3.388864e+00 4.137090e+00 4.480610e+00 2.966488e+00 1.986060e+00 5.206806e-01 -6.643036e-01 -1.178646e+00 -2.177067e+00 -2.541743e+00 -2.777634e+00
2.352392e+00 5.291908e-01 -4.195171e-01 -1.347025e+00 -2.708325e+00 -4.288414e+00 -5.186937e+00 -6.661240e+00 -6.307765e+00 -5.514815e+00 -5.450425e+00 -6.273175e+00 -5.469248e+00 -4.163499e+00 -4.681613e+00 -5.241679e+00 -5.781075e+00 -4.720464e+00 -3.232816e+00 -1.591383e+00 -1.124733e+00 1.195280e+00 1.653861e+00 2.528863e+00 4.133115e+00 4.166410e+00 5.799650e+00 6.969012e+00 8.031402e+00 1.112799e+01 1.128220e+01 1.286930e+01 1.433800e+01 1.366627e+01 1.297638e+01 1.108756e+01 1.125055e+01 1.167205e+01 1.085476e+01 1.059570e+01 1.003780e+01 9.341079e+00 7.687211e+00 6.842948e+00 6.096514e+00 4.274080e+00 4.434349e+00 4.054457e+00 4.444951e+00 3.880716e+00 3.900655e+00 3.783784e+00 4.215622e+00 4.812980e+00 4.081949e+00 3.987833e+00 4.685139e+00 4.144772e+00 2.914036e+00 1.672110e+00 -1.056982e-02 -1.353421e+00 -2.296583e+00 -2.499715e+00 -2.668877e+00
2.630455e+00 1.829859e+00 3.649484e-01 -4.905783e-01 -2.169424e+00 -3.760377e+00 -5.416084e+00 -6.036314e+00 -6.797721e+00 -6.582648e+00 -5.407932e+00 -5.479527e+00 -5.672946e+00 -5.239851e+00 -4.102584e+00 -5.179840e+00 -5.364570e+00 -5.063493e+00 -4.903249e+00 -2.998323e+00 -1.668164e+00 1.725502e-01 1.886689e+00 3.204859e+00 4.403838e+00 4.066999e+00 4.514370e+00 6.093416e+00 6.910626e+00 9.523044e+00 1.232082e+01 1.375887e+01 1.469043e+01 1.382327e+01 1.268626e+01 1.146387e+01 1.006629e+01 1.057839e+01 1.160787e+01 1.133016e+01 1.100214e+01 9.877411e+00 9.051020e+00 8.867801e+00 7.959905e+00 6.437341e+00 4.702949e+00 4.920581e+00 4.395192e+00 4.136997e+00 3.770783e+00 3.785549e+00 4.729457e+00 4.680798e+00 5.503722e+00 5.683063e+00 4.868448e+00 4.088227e+00 4.107601e+00 2.618239e+00 1.227815e+00 -8.042992e-01 -2.074344e+00 -2.733121e+00 -2.528541e+00
2.460291e+00 1.311851e+00 4.224451e-01 -7.358846e-01 -1.963763e+00 -2.734116e+00 -4.835378e+00 -5.855819e+00 -5.902852e+00 -6.469888e+00 -5.092224e+00 -5.967189e+00 -5.983507e+00 -5.027458e+00 -4.781280e+00 -3.874191e+00 -4.973424e+00 -4.345799e+00 -4.519436e+00 -4.398221e+00 -2.274493e+00 -6.141049e-01 1.607834e+00 2.815931e+00 3.346823e+00 5.023904e+00 4.814923e+00 5.081307e+00 5.913252e+00 7.703477e+00 1.023052e+01 1.357613e+01 1.456506e+01 1.322186e+01 1.265244e+01 1.145835e+01 1.007121e+01 1.005475e+01 9.961873e+00 1.153858e+01 1.066416e+01 1.069085e+01 9.705452e+00 9.732943e+00 9.470715e+00 8.099307e+00 6.188840e+00 4.605226e+00 4.577915e+00 4.249012e+00 3.851992e+00 3.575647e+00 4.631079e+00 5.461943e+00 5.341068e+00 5.795705e+00 5.812140e+00 4.700850e+00 4.481042e+00 2.785553e+00 1.452461e+00 9.816512e-01 -8.327399e-01 -2.555320e+00 -2.333392e+00
2.162502e+00 1.277503e+00 1.155959e-01 -1.033294e+00 -1.649166e+00 -2.363820e+00 -3.592010e+00 -4.378502e+00 -5.703732e+00 -5.960812e+00 -5.404610e+00 -5.720545e+00 -6.154268e+00 -5.468107e+00 -5.192737e+00 -4.543319e+00 -4.258898e+00 -4.081589e+00 -3.593311e+00 -4.019369e+00 -3.692000e+00 -1.937868e+00 3.306667e-01 2.058834e+00 3.234177e+00 4.387522e+00 5.210028e+00 4.936088e+00 5.429011e+00 7.332261e+00 8.989107e+00 1.169398e+01 1.384395e+01 1.341940e+01 1.218896e+01 1.062813e+01 9.896982e+00 9.255296e+00 9.252778e+00 9.886896e+00 1.048637e+01 1.047663e+01 1.077694e+01 1.025362e+01 1.003117e+01 8.710230e+00 7.983855e+00 6.716540e+00 4.714660e+00 4.421022e+00 4.649007e+00 4.045150e+00 3.912916e+00 4.798197e+00 5.900311e+00 6.293884e+00 6.122240e+00 5.007928e+00 4.882294e+00 3.209442e+00 2.177405e+00 1.202649e+00 2.715615e-01 -5.604501e-01 -2.277194e+00
2.036246e+00 1.002138e+00 6.297627e-01 -1.762241e-02 -1.116154e+00 -2.856766e+00 -3.320671e+00 -4.473559e+00 -5.595010e+00 -5.362950e+00 -5.461532e+00 -5.078451e+00 -6.065538e+00 -6.214408e+00 -6.024975e+00 -5.205609e+00 -4.402132e+00 -3.673818e+00 -3.602165e+00 -2.496973e+00 -2.937666e+00 -1.770840e+00 -3.199826e-01 9.476177e-01 3.180377e+00 2.751532e+00 3.886689e+00 4.882276e+00 5.118010e+00 6.076007e+00 7.860421e+00 1.031320e+01 1.301066e+01 1.284615e+01 1.172480e+01 1.128523e+01 1.000733e+01 9.593967e+00 9.322869e+00 9.244847e+00 9.714961e+00 1.008578e+01 1.073079e+01 1.007019e+01 9.668778e+00 9.640745e+00 8.269034e+00 8.141735e+00 5.889258e+00 4.817777e+00 5.588516e+00 5.210379e+00 4.344884e+00 4.463835e+00 6.278768e+00 6.900849e+00 6.853350e+00 5.119610e+00 4.402333e+00 3.665207e+00 1.461721e+00 1.566781e+00 1.316882e-01 -1.326084e+00 -2.914271e+00
1.862302e+00 1.526981e+00 7.570824e-01 -3.567375e-01 -6.026452e-01 -1.447242e+00 -3.141150e+00 -4.803955e+00 -6.310369e+00 -5.218719e+00 -4.748369e+00 -5.519461e+00 -5.736947e+00 -6.524432e+00 -6.323798e+00 -5.500457e+00 -4.329992e+00 -3.467429e+00 -2.812544e+00 -2.588071e+00 -1.667508e+00 -1.088754e+00 -1.017834e-01 1.182166e+00 2.250833e+00 2.206709e+00 2.819815e+00 3.796811e+00 5.058629e+00 5.502092e+00 6.523895e+00 9.096478e+00 1.148888e+01 1.117900e+01 1.165134e+01 1.093638e+01 9.511260e+00 9.636311e+00 8.890255e+00 9.833145e+00 9.915968e+00 1.004077e+01 1.015227e+01 9.848801e+00 8.966054e+00 9.004155e+00 9.491140e+00 8.884945e+00 7.833723e+00 7.305249e+00 5.861505e+00 5.388697e+00 5.228492e+00 5.071854e+00 5.769720e+00 6.213891e+00 7.201263e+00 4.994467e+00 3.367260e+00 2.114752e+00 1.575430e+00 1.086019e+00 1.790254e-01 -1.711122e+00 -2.752816e+00
1.835928e+00 1.633358e+00 9.932436e-01 5.564647e-01 -5.417395e-01 -1.482453e+00 -2.771723e+00 -4.393129e+00 -5.832682e+00 -5.256258e+00 -4.321988e+00 -4.744639e+00 -4.724819e+00 -5.476033e+00 -5.295025e+00 -5.641236e+00 -4.704948e+00 -3.366008e+00 -2.990147e+00 -1.594607e+00 -1.418899e+00 -6.895070e-01 1.071627e-01 1.163929e+00 2.037545e+00 2.951712e+00 2.809865e+00 3.908790e+00 5.003098e+00 5.658481e+00 6.273301e+00 7.694328e+00 1.016223e+01 1.046265e+01 1.010475e+01 1.056154e+01 9.054685e+00 9.766242e+00 9.579828e+00 8.594161e+00 9.862341e+00 9.793787e+00 9.867235e+00 1.015924e+01 9.432313e+00 9.709109e+00 1.010279e+01 9.358338e+00 8.558731e+00 8.517836e+00 7.502930e+00 6.964966e+00 6.343706e+00 5.887142e+00 6.074804e+00 6.749959e+00 6.521055e+00 5.165730e+00 3.600906e+00 3.144087e+00 1.565973e+00 8.576618e-01 -7.565920e-02 -6.317248e-01 -2.216745e+00
2.173063e+00 1.652146e+00 1.174255e+00 5.434196e-01 5.504508e-02 -1.127062e+00 -1.785782e+00 -3.362041e+00 -4.975484e+00 -4.705587e+00 -4.003610e+00 -4.177866e+00 -4.562662e+00 -4.682212e+00 -4.538787e+00 -5.123095e+00 -5.943738e+00 -4.214689e+00 -3.011803e+00 -2.403521e+00 -1.072336e+00 -2.242713e-01 4.772988e-01 9.490464e-01 1.723642e+00 2.895876e+00 3.156844e+00 3.727334e+00 4.335517e+00 5.326984e+00 6.416515e+00 7.756829e+00 9.089788e+00 9.079631e+00 9.142088e+00 9.040612e+00 8.796943e+00 9.371754e+00 9.692918e+00 8.995048e+00 8.904034e+00 9.751476e+00 1.001273e+01 9.715576e+00 9.344627e+00 9.847004e+00 1.005263e+01 9.600739e+00 9.554214e+00 9.724429e+00 9.357212e+00 8.921875e+00 7.665432e+00 7.642111e+00 7.039676e+00 7.162911e+00 6.805651e+00 4.889874e+00 3.657926e+00 2.641097e+00 2.129201e+00 8.218968e-01 1.025462e-02 -1.169847e+00 -1.788268e+00
2.042070e+00 1.248345e+00 1.522410e+00 8.889880e-01 -6.448638e-02 2.953680e-01 -9.465410e-01 -2.648339e+00 -4.033453e+00 -4.623557e+00 -4.204552e+00 -4.123566e+00 -4.071408e+00 -5.356024e+00 -5.020033e+00 -5.307289e+00 -5.292729e+00 -6.511518e+00 -4.315779e+00 -3.430893e+00 -2.172341e+00 -1.582286e+00 -1.158801e+00 3.615617e-01 6.745335e-01 1.825038e+00 2.709625e+00 2.786562e+00 3.956755e+00 4.388173e+00 5.682982e+00 7.336493e+00 9.198835e+00 8.609924e+00 8.054447e+00 9.721177e+00 8.680316e+00 8.936675e+00 9.140175e+00 9.282323e+00 8.575424e+00 7.937771e+00 8.412282e+00 9.117621e+00 9.150188e+00 9.566759e+00 9.828860e+00 1.019720e+01 9.135272e+00 8.652092e+00 8.929662e+00 7.979110e+00 7.447307e+00 7.481729e+00 7.414957e+00 6.529247e+00 6.406766e+00 5.694730e+00 3.509533e+00 3.507547e+00 2.465472e+00 2.165813e+00 1.246967e+00 4.647410e-01 -1.101471e-01
1.661386e+00 9.380518e-01 1.212527e+00 1.141837e+00 7.623460e-01 1.016832e+00 6.392286e-01 -7.587195e-01 -3.050532e+00 -4.232144e+00 -5.002070e+00 -4.155054e+00 -3.810061e+00 -4.372279e+00 -5.291580e+00 -5.296775e+00 -5.317943e+00 -5.973753e+00 -6.161482e+00 -5.070221e+00 -3.177383e+00 -2.972471e+00 -2.501794e+00 -1.599749e+00 -5.460903e-01 8.391391e-01 2.091860e+00 2.937517e+00 2.860316e+00 4.343915e+00 5.315670e+00 7.361591e+00 8.670119e+00 7.831275e+00 7.714014e+00 8.447059e+00 9.319870e+00 9.550272e+00 9.177977e+00 8.773515e+00 8.355598e+00 7.752929e+00 7.774266e+00 7.928933e+00 8.565954e+00 9.577257e+00 9.841347e+00 9.995113e+00 9.602397e+00 9.228235e+00 8.183200e+00 7.967552e+00 7.118985e+00 6.990321e+00 7.825878e+00 6.741692e+00 5.678964e+00 4.601324e+00 3.993764e+00 3.129391e+00 2.417315e+00 2.546441e+00 3.179162e+00 1.966924e+00 1.109357e+00
9.452710e-01 1.589496e+00 6.201291e-01 1.433299e+00 2.882801e-01 1.036412e+00 4.997227e-01 3.329867e-01 -1.125787e+00 -3.160316e+00 -3.540084e+00 -3.728685e+00 -3.373859e+00 -3.673534e+00 -4.826059e+00 -4.407410e+00 -5.123438e+00 -5.282935e+00 -6.093853e+00 -5.658216e+00 -4.480312e+00 -4.268555e+00 -3.752769e+00 -2.413778e+00 -1.423745e+00 -2.809444e-03 1.064047e+00 2.620862e+00 3.291387e+00 4.048435e+00 5.199232e+00 5.440333e+00 7.754974e+00 8.221971e+00 7.604907e+00 8.402765e+00 8.655291e+00 9.430155e+00 8.808011e+00 9.833841e+00 8.620521e+00 8.372029e+00 8.694344e+00 7.328345e+00 7.722622e+00 9.837596e+00 9.997880e+00 1.022846e+01 1.018410e+01 9.522878e+00 9.148273e+00 8.213107e+00 7.508498e+00 6.830304e+00 7.184590e+00 6.587255e+00 5.915873e+00 4.939271e+00 4.146370e+00 3.940918e+00 3.248117e+00 2.559042e+00 3.019095e+00 2.860509e+00 1.770391e+00
2.837797e-01 6.919741e-01 7.460084e-01 1.164700e+00 6.804330e-01 1.026873e+00 8.969366e-01 6.624583e-01 1.504333e-01 -1.246388e+00 -2.457400e+00 -2.620809e+00 -3.284040e+00 -3.708857e+00 -4.385528e+00 -4.199087e+00 -4.399540e+00 -4.847287e+00 -5.462418e+00 -6.158268e+00 -6.091099e+00 -5.751282e+00 -4.649038e+00 -3.391380e+00 -2.651714e+00 -1.931982e+00 -3.984747e-01 1.122751e+00 2.907857e+00 3.894889e+00 5.327523e+00 5.765700e+00 6.484266e+00 6.190977e+00 6.882358e+00 7.397210e+00 8.191304e+00 8.598046e+00 8.619312e+00 9.043119e+00 9.755818e+00 9.167106e+00 8.994041e+00 8.424929e+00 7.766747e+00 9.230304e+00 1.037098e+01 1.109679e+01 1.113830e+01 1.045228e+01 1.017685e+01 8.743918e+00 8.043927e+00 7.630086e+00 6.409397e+00 6.078849e+00 6.171133e+00 5.193778e+00 4.257123e+00 3.255746e+00 3.170901e+00 3.032334e+00 3.427611e+00 2.586782e+00 2.259072e+00
8.214839e-01 1.140440e+00 1.414022e+00 1.840614e+00 1.658167e+00 1.444613e+00 1.250115e+00 1.774964e+00 7.233824e-01 -4.304887e-01 -1.552374e+00 -2.161584e+00 -1.942634e+00 -2.826300e+00 -2.737302e+00 -4.089682e+00 -4.129198e+00 -3.444146e+00 -4.068210e+00 -5.288471e+00 -5.375048e+00 -5.543777e+00 -4.509191e+00 -3.645148e+00 -2.923537e+00 -1.352546e+00 -5.764145e-02 7.873819e-01 1.610661e+00 4.370044e+00 5.369507e+00 6.487108e+00 6.525038e+00 6.531509e+00 7.666890e+00 8.048735e+00 9.078483e+00 8.476409e+00 8.650432e+00 8.441704e+00 9.220744e+00 9.717229e+00 9.520537e+00 8.372789e+00 8.026157e+00 8.265908e+00 9.919727e+00 1.016328e+01 1.120250e+01 1.087541e+01 1.014035e+01 9.389733e+00 8.674923e+00 8.272418e+00 7.179371e+00 6.304074e+00 6.287958e+00 5.756987e+00 4.978247e+00 4.402017e+00 3.287705e+00 3.037562e+00 3.958356e+00 3.079681e+00 1.837017e+00
6.996470e-01 1.581906e+00 1.743132e+00 2.274542e+00 2.071592e+00 1.904796e+00 2.044284e+00 2.075830e+00 1.674555e+00 7.282436e-01 -1.240023e-02 -6.244635e-01 -1.370449e+00 -1.223513e+00 -1.751437e+00 -2.879983e+00 -3.278493e+00 -2.715444e+00 -1.821520e+00 -2.696345e+00 -4.123995e+00 -4.864699e+00 -5.308891e+00 -4.852638e+00 -3.410439e+00 -1.725493e+00 -2.507000e-01 6.177406e-01 1.313083e+00 2.971186e+00 4.943469e+00 5.783259e+00 6.967286e+00 6.812273e+00 7.464315e+00 8.182384e+00 9.613695e+00 8.812266e+00 8.725266e+00 8.539050e+00 9.229812e+00 9.452650e+00 9.765150e+00 9.494112e+00 8.621712e+00 8.484688e+00 8.956059e+00 9.965214e+00 1.059302e+01 1.076457e+01 1.019160e+01 1.000368e+01 9.228301e+00 8.332677e+00 7.964034e+00 7.623164e+00 7.178205e+00 6.907137e+00 6.213007e+00 4.944806e+00 3.926955e+00 3.762133e+00 3.656073e+00 2.650017e+00 1.875328e+00
7.641496e-01 1.337926e+00 1.731637e+00 1.833691e+00 1.889788e+00 2.193655e+00 2.405158e+00 2.048487e+00 1.339742e+00 1.525550e+00 6.978791e-01 -4.852925e-01 -8.837324e-01 -1.688902e+00 -1.725111e+00 -7.706006e-01 -1.390911e+00 -1.889532e+00 -1.262304e+00 -9.036713e-01 -2.350514e+00 -3.752266e+00 -3.742350e+00 -4.169929e+00 -3.912478e+00 -1.501318e+00 8.272676e-03 3.825916e-02 9.163789e-01 3.419924e+00 4.799545e+00 6.352770e+00 6.826768e+00 7.912385e+00 8.097675e+00 8.008799e+00 9.677943e+00 9.782934e+00 9.822351e+00 8.460392e+00 9.349619e+00 1.011845e+01 1.012782e+01 1.058569e+01 1.026158e+01 9.060396e+00 9.961288e+00 8.722208e+00 1.000246e+01 1.052469e+01 1.011992e+01 9.695337e+00 9.069957e+00 9.485929e+00 8.492547e+00 7.333782e+00 6.654803e+00 6.435861e+00 5.944851e+00 5.223568e+00 4.189164e+00 3.983283e+00 4.246737e+00 3.228592e+00 2.948957e+00
1.552809e+00 2.133827e+00 1.865125e+00 2.215159e+00 2.117162e+00 2.220976e+00 2.532775e+00 1.882540e+00 1.735753e+00 9.327616e-01 5.618845e-01 2.515771e-01 -9.660027e-01 -1.517348e+00 -1.155770e+00 -8.384678e-01 -4.822518e-01 -3.921558e-01 -4.078147e-01 -5.382737e-01 -9.123754e-01 -2.153958e+00 -2.985995e+00 -3.740793e+00 -3.903804e+00 -2.363708e+00 -4.020756e-01 6.713027e-01 1.264124e+00 3.242106e+00 4.726022e+00 6.390224e+00 7.350045e+00 7.560483e+00 8.728636e+00 9.109196e+00 9.085917e+00 9.771845e+00 9.941640e+00 9.238590e+00 9.062758e+00 9.602593e+00 1.040502e+01 1.053500e+01 1.113220e+01 1.020223e+01 1.018662e+01 9.589480e+00 9.425265e+00 9.806412e+00 1.062555e+01 1.043961e+01 9.863827e+00 9.857150e+00 8.895544e+00 7.442731e+00 6.875109e+00 6.337194e+00 5.749620e+00 5.006307e+00 5.092777e+00 4.526892e+00 4.007195e+00 3.863286e+00 3.296327e+00
2.112957e+00 3.221744e+00 2.889148e+00 3.003807e+00 2.805953e+00 3.253343e+00 3.093485e+00 3.047125e+00 2.836645e+00 1.724054e+00 1.954148e+00 1.386979e+00 6.657210e-01 -1.017089e+00 -1.474123e+00 -1.367118e+00 -2.301704e-01 1.084653e+00 7.227760e-01 -4.539362e-01 -6.797930e-01 -2.674755e-01 -1.201758e+00 -2.011563e+00 -2.489128e+00 -3.088513e+00 -1.325317e+00 -6.333063e-01 6.078314e-02 1.255371e+00 3.372537e+00 4.459381e+00 6.402826e+00 6.364423e+00 7.828183e+00 7.327933e+00 6.956793e+00 8.321123e+00 8.845824e+00 8.572080e+00 7.536665e+00 9.376871e+00 9.523844e+00 9.968341e+00 1.002936e+01 9.903589e+00 9.433397e+00 9.515290e+00 9.813374e+00 8.807605e+00 9.560674e+00 1.061990e+01 1.041492e+01 1.002678e+01 9.114870e+00 7.834150e+00 6.484152e+00 6.384467e+00 6.127654e+00 5.488792e+00 4.556514e+00 4.328557e+00 4.096325e+00 3.814523e+00 3.678789e+00
3.193737e+00 3.771604e+00 3.989110e+00 3.799662e+00 3.764975e+00 3.514043e+00 3.652876e+00 3.151541e+00 2.938939e+00 3.190780e+00 2.511136e+00 2.144597e+00 1.401860e+00 6.111290e-01 -8.316332e-01 -8.751017e-01 -6.176643e-01 1.044889e+00 1.741847e+00 1.322277e+00 3.465998e-01 4.474079e-01 -3.252381e-01 -9.675496e-01 -1.598682e+00 -2.525201e+00 -2.998260e+00 -1.974978e+00 -3.304033e-01 6.089497e-01 1.429845e+00 3.695955e+00 5.058738e+00 5.379930e+00 6.075284e+00 6.011403e+00 5.758144e+00 6.578832e+00 8.006493e+00 7.821244e+00 6.794541e+00 7.660653e+00 9.458711e+00 9.729850e+00 9.284573e+00 9.188923e+00 9.610316e+00 9.924665e+00 9.506398e+00 8.947073e+00 8.853042e+00 9.716869e+00 1.003040e+01 9.854385e+00 1.018967e+01 8.766500e+00 6.853462e+00 6.422438e+00 5.621269e+00 4.621708e+00 4.601118e+00 3.987828e+00 4.022380e+00 3.872255e+00 4.367016e+00
3.850857e+00 3.872319e+00 4.840608e+00 5.160316e+00 5.323392e+00 4.653060e+00 4.447895e+00 4.118729e+00 3.348078e+00 3.297995e+00 2.239474e+00 3.139871e+00 2.293409e+00 1.354572e+00 3.962822e-01 -9.275129e-01 -8.496508e-01 9.278383e-01 1.823850e+00 2.105791e+00 1.637611e+00 9.564581e-01 1.089189e+00 -4.163701e-01 -6.121826e-01 -1.166236e+00 -2.462118e+00 -3.298594e+00 -1.559440e+00 -2.937949e-01 5.868729e-01 1.971790e+00 4.335143e+00 4.324816e+00 5.758666e+00 5.466172e+00 4.566278e+00 4.899442e+00 6.230777e+00 6.786440e+00 5.848874e+00 6.944675e+00 8.607098e+00 9.167218e+00 8.664625e+00 8.762184e+00 8.552349e+00 9.311536e+00 8.889225e+00 8.757546e+00 8.593334e+00 8.691354e+00 9.185624e+00 1.020345e+01 9.593981e+00 9.805827e+00 7.947068e+00 6.296953e+00 6.220680e+00 5.051552e+00 4.076178e+00 4.238924e+00 4.081794e+00 4.143116e+00 4.057838e+00
4.599573e+00 5.064946e+00 4.828129e+00 5.325895e+00 6.206587e+00 5.552767e+00 4.635206e+00 4.032004e+00 4.418782e+00 3.276400e+00 2.929419e+00 2.869806e+00 3.164518e+00 1.933506e+00 1.054424e+00 -6.760093e-02 -3.352564e-01 1.142031e+00 1.681300e+00 1.363376e+00 1.982490e+00 2.244366e+00 1.731049e+00 4.037408e-01 7.785048e-03 -1.019243e+00 -1.156270e+00 -2.061593e+00 -2.785931e+00 -1.385382e+00 5.755608e-01 1.420692e+00 3.076879e+00 3.847190e+00 4.483322e+00 4.381830e+00 3.941865e+00 4.025026e+00 4.295841e+00 5.273843e+00 5.726172e+00 6.783562e+00 7.627663e+00 8.277889e+00 8.472360e+00 8.548642e+00 8.242267e+00 8.896022e+00 8.552457e+00 8.293510e+00 7.857675e+00 7.916314e+00 8.804292e+00 9.532321e+00 9.754739e+00 8.792738e+00 8.737099e+00 7.878174e+00 6.499288e+00 5.605523e+00 4.378910e+00 3.787244e+00 4.047775e+00 4.039582e+00 4.486071e+00
4.872817e+00 6.108878e+00 5.820983e+00 7.183766e+00 7.672979e+00 7.014110e+00 5.631992e+00 6.201846e+00 5.507381e+00 4.826648e+00 3.646980e+00 3.512089e+00 3.794259e+00 2.931272e+00 2.042618e+00 3.307610e-01 4.672608e-01 1.310258e-01 1.778852e+00 1.632367e+00 1.605866e+00 2.091790e+00 1.737139e+00 2.995612e+00 2.229151e+00 1.453916e+00 -1.033466e-01 2.929769e-01 -9.972185e-01 -2.473217e+00 -6.774321e-01 1.260209e+00 2.641915e+00 2.499011e+00 2.941880e+00 3.753491e+00 3.088566e+00 4.015044e+00 4.274049e+00 5.073465e+00 5.503648e+00 5.758944e+00 6.327982e+00 6.436670e+00 7.068714e+00 7.574893e+00 7.456955e+00 7.989156e+00 8.739862e+00 9.192686e+00 8.725577e+00 8.768362e+00 8.669344e+00 9.129730e+00 9.930902e+00 9.291548e+00 9.459180e+00 8.355870e+00 7.956590e+00 5.901215e+00 4.344360e+00 4.819054e+00 4.663611e+00 4.498738e+00 5.410250e+00
5.906980e+00 6.381755e+00 7.591531e+00 7.929549e+00 8.689586e+00 8.545502e+00 7.456581e+00 7.417515e+00 7.392380e+00 5.772829e+00 4.520877e+00 4.317908e+00 3.710386e+00 3.321378e+00 2.074680e+00 1.291276e+00 3.412063e-01 9.642901e-01 9.165358e-01 1.933680e+00 2.055583e+00 2.641584e+00 2.738200e+00 3.156957e+00 3.473340e+00 3.091260e+00 1.940459e+00 1.897639e+00 1.180970e+00 -6.044573e-01 -1.697126e+00 5.807385e-01 2.431514e+00 2.083847e+00 2.103779e+00 2.681296e+00 2.297163e+00 3.011158e+00 3.429031e+00 4.759123e+00 5.267297e+00 5.492822e+00 5.564332e+00 6.115447e+00 5.743020e+00 6.994588e+00 7.574139e+00 7.717345e+00 8.564338e+00 8.879243e+00 9.062344e+00 9.458647e+00 9.015415e+00 9.272900e+00 9.309120e+00 8.910724e+00 9.508370e+00 9.522254e+00 8.557105e+00 6.397106e+00 5.038315e+00 4.607055e+00 4.789581e+00 5.253981e+00 5.882918e+00
6.331912e+00 7.254519e+00 7.946037e+00 9.342323e+00 9.516050e+00 8.936129e+00 8.218287e+00 8.269772e+00 7.994723e+00 7.311844e+00 6.330185e+00 4.614026e+00 4.487008e+00 3.534146e+00 3.099109e+00 2.392359e+00 9.567441e-01 2.003836e+00 1.888533e+00 1.893472e+00 2.068959e+00 2.520742e+00 2.719959e+00 3.623029e+00 4.640270e+00 4.371501e+00 3.189043e+00 2.409254e+00 2.337779e+00 1.740339e+00 9.174374e-01 -8.151365e-01 1.616306e+00 2.551666e+00 2.599290e+00 2.490189e+00 2.483829e+00 2.271579e+00 2.497117e+00 3.309401e+00 5.082573e+00 4.866307e+00 5.155924e+00 5.157102e+00 5.358290e+00 5.918124e+00 6.898284e+00 7.853837e+00 7.935501e+00 8.170616e+00 9.065027e+00 8.868499e+00 8.659548e+00 9.886139e+00 1.019971e+01 9.616830e+00 9.742455e+00 9.664527e+00 8.542743e+00 7.125152e+00 5.772607e+00 5.270293e+00 5.346793e+00 5.584508e+00 5.421515e+00
7.507478e+00 8.063045e+00 8.040910e+00 9.110839e+00 1.012500e+01 9.562361e+00 9.827963e+00 8.949778e+00 8.892787e+00 8.473886e+00 8.138770e+00 6.953090e+00 5.467773e+00 4.524748e+00 3.321219e+00 2.747407e+00 2.541960e+00 2.866465e+00 2.905902e+00 2.692426e+00 2.870061e+00 3.327830e+00 3.651919e+00 4.546687e+00 5.312008e+00 4.770356e+00 5.013328e+00 4.498241e+00 3.803431e+00 3.725334e+00 2.782858e+00 1.591885e+00 9.102592e-01 1.176287e+00 2.227494e+00 2.126717e+00 1.917675e+00 2.483236e+00 2.342673e+00 3.331309e+00 4.170052e+00 4.327897e+00 3.975803e+00 4.423081e+00 4.267206e+00 5.559322e+00 6.154314e+00 6.762406e+00 7.712538e+00 7.561249e+00 8.145442e+00 8.525852e+00 8.759052e+00 9.401877e+00 1.044569e+01 1.065570e+01 1.075135e+01 9.375954e+00 8.952973e+00 7.907603e+00 6.546889e+00 5.823280e+00 5.593727e+00 6.073581e+00 5.826342e+00
6.996333e+00 7.766409e+00 8.280693e+00 9.322225e+00 9.891186e+00 9.947256e+00 9.593427e+00 9.509767e+00 8.984385e+00 7.905389e+00 8.241238e+00 7.610295e+00 6.199670e+00 5.237538e+00 4.631349e+00 4.625567e+00 3.577901e+00 3.189781e+00 2.722538e+00 4.056707e+00 4.065055e+00 3.550193e+00 4.035243e+00 4.549417e+00 5.529588e+00 5.183943e+00 5.541628e+00 5.173138e+00 4.316798e+00 2.483280e+00 1.551778e+00 2.004624e+00 5.040057e-01 1.574668e+00 2.880757e+00 2.611518e+00 2.705277e+00 2.094598e+00 1.674025e+00 3.470549e+00 4.326239e+00 4.595959e+00 4.512966e+00 4.197513e+00 4.676676e+00 4.846776e+00 5.995025e+00 7.321429e+00 8.405183e+00 7.583962e+00 7.046792e+00 7.646709e+00 8.047988e+00 7.972865e+00 9.002896e+00 1.001221e+01 1.029968e+01 9.969094e+00 9.028660e+00 8.081259e+00 6.332815e+00 6.224164e+00 5.446108e+00 5.581403e+00 5.541566e+00
6.338509e+00 6.979308e+00 7.784423e+00 8.730973e+00 9.966764e+00 9.520268e+00 9.503375e+00 9.782862e+00 9.649222e+00 8.848883e+00 7.763095e+00 7.422177e+00 7.155952e+00 6.509234e+00 5.674012e+00 5.628045e+00 5.085454e+00 3.745137e+00 3.328710e+00 3.679772e+00 4.489368e+00 4.280103e+00 3.743721e+00 4.466239e+00 6.056400e+00 5.844577e+00 5.391541e+00 4.749855e+00 4.609602e+00 3.378217e+00 1.300934e+00 1.185383e+00 5.033180e-01 1.906383e+00 3.062046e+00 3.491674e+00 3.241956e+00 2.486087e+00 1.841269e+00 2.801417e+00 3.979777e+00 4.792872e+00 4.701270e+00 4.695130e+00 4.829114e+00 5.150046e+00 5.514136e+00 6.528460e+00 8.150526e+00 7.919597e+00 6.874272e+00 7.587513e+00 7.756640e+00 8.285647e+00 8.074736e+00 9.393294e+00 9.769977e+00 9.265220e+00 8.187407e+00 7.181942e+00 7.039369e+00 6.563690e+00 5.092791e+00 4.937634e+00 5.371615e+00
5.197536e+00 6.953858e+00 7.546456e+00 7.807525e+00 9.144124e+00 9.179041e+00 8.701686e+00 9.589741e+00 9.921275e+00 9.039040e+00 8.100448e+00 8.030972e+00 7.538477e+00 6.742136e+00 5.405393e+00 6.252395e+00 5.739734e+00 5.807779e+00 4.417548e+00 4.348123e+00 4.846223e+00 4.811895e+00 4.404153e+00 5.365507e+00 5.869656e+00 6.240446e+00 5.329775e+00 4.841839e+00 4.478296e+00 3.623139e+00 2.429021e+00 1.016671e+00 9.288517e-01 5.743107e-01 1.762291e+00 2.885916e+00 3.004548e+00 3.146272e+00 3.002016e+00 2.159751e+00 3.509200e+00 4.202977e+00 4.556129e+00 5.243317e+00 5.998522e+00 5.265725e+00 6.307158e+00 6.702517e+00 7.624000e+00 7.361873e+00 6.704977e+00 5.601008e+00 6.230897e+00 7.071200e+00 7.542573e+00 8.183763e+00 9.094773e+00 9.130928e+00 8.162409e+00 7.605201e+00 7.198611e+00 5.828474e+00 5.559779e+00 4.507272e+00 5.075636e+00
4.523391e+00 5.358618e+00 6.631095e+00 7.168320e+00 7.832047e+00 7.670629e+00 7.610183e+00 8.078212e+00 9.382928e+00 8.849678e+00 7.960074e+00 8.060688e+00 7.814176e+00 6.596469e+00 6.113258e+00 6.519292e+00 6.369735e+00 6.221772e+00 5.680252e+00 5.215682e+00 4.611655e+00 4.624924e+00 4.904796e+00 5.084340e+00 6.040279e+00 6.401666e+00 5.977114e+00 5.528945e+00 4.125418e+00 3.179166e+00 2.811049e+00 2.142615e+00 5.742780e-01 1.145130e+00 1.144721e+00 2.367510e+00 3.421373e+00 3.270326e+00 3.896634e+00 3.393530e+00 2.770455e+00 3.576540e+00 4.045973e+00 5.616316e+00 6.639443e+00 6.878610e+00 6.240096e+00 7.037255e+00 7.249484e+00 7.154866e+00 6.150463e+00 5.367094e+00 5.297906e+00 6.313478e+00 7.092167e+00 7.435657e+00 7.793130e+00 7.730908e+00 7.625725e+00 7.320813e+00 7.065459e+00 6.264849e+00 5.201842e+00 4.832241e+00 4.579983e+00
5.286860e+00 5.360746e+00 6.598067e+00 6.725161e+00 7.941084e+00 7.515661e+00 7.793086e+00 8.908310e+00 9.740331e+00 9.012980e+00 8.780599e+00 8.299555e+00 8.105883e+00 7.482096e+00 6.226230e+00 6.638087e+00 6.644049e+00 6.286456e+00 5.430989e+00 5.647978e+00 5.290890e+00 4.652139e+00 4.406223e+00 5.038470e+00 5.584400e+00 5.624241e+00 5.682942e+00 4.629720e+00 3.785298e+00 3.672569e+00 2.449426e+00 1.602239e+00 3.632841e-01 5.848325e-01 1.185840e+00 1.563705e+00 3.059026e+00 2.909112e+00 3.866266e+00 2.710603e+00 2.583221e+00 3.532764e+00 4.319895e+00 4.620886e+00 6.789218e+00 6.931832e+00 6.895033e+00 7.610826e+00 8.612805e+00 6.122861e+00 6.073230e+00 5.303125e+00 4.426375e+00 5.297598e+00 5.911523e+00 6.714304e+00 6.516054e+00 7.015110e+00 6.697557e+00 6.108560e+00 5.362525e+00 6.514098e+00 5.647730e+00 5.696593e+00 5.251620e+00
5.280531e+00 5.501389e+00 5.715331e+00 6.945587e+00 7.612768e+00 7.354826e+00 7.536783e+00 8.551573e+00 9.520399e+00 9.682763e+00 9.254208e+00 8.399319e+00 7.869168e+00 7.751446e+00 7.147777e+00 6.702384e+00 6.258774e+00 5.982050e+00 6.040925e+00 6.222806e+00 5.851504e+00 4.909445e+00 4.534347e+00 5.175351e+00 6.113961e+00 4.835521e+00 4.477468e+00 3.564262e+00 2.791703e+00 2.498588e+00 2.718039e+00 1.811135e+00 7.084139e-01 7.676635e-01 8.897587e-01 1.986160e+00 2.648429e+00 3.439714e+00 3.346200e+00 2.902581e+00 1.481159e+00 3.355468e+00 5.144755e+00 5.667743e+00 5.983734e+00 6.888016e+00 8.056778e+00 8.212860e+00 9.030010e+00 7.232547e+00 5.525445e+00 4.280396e+00 3.899417e+00 4.697252e+00 4.581047e+00 5.318331e+00 6.128448e+00 5.541635e+00 5.466697e+00 5.307411e+00 4.361623e+00 5.076874e+00 5.722960e+00 5.255919e+00 5.364745e+00
5.265048e+00 5.788033e+00 5.514184e+00 5.654954e+00 6.886238e+00 8.119430e+00 7.679663e+00 8.070297e+00 9.122151e+00 9.944738e+00 9.288846e+00 9.633967e+00 8.604526e+00 8.117821e+00 7.615866e+00 6.638272e+00 6.940954e+00 6.264320e+00 6.224981e+00 6.260897e+00 5.250543e+00 5.068891e+00 4.836315e+00 4.714964e+00 5.283933e+00 4.756955e+00 3.949437e+00 2.475461e+00 1.546529e+00 2.373160e+00 2.510547e+00 1.801793e+00 8.513978e-01 1.102198e+00 1.371007e+00 1.841982e-01 1.225597e+00 1.792937e+00 2.446530e+00 3.049719e+00 2.296758e+00 2.970616e+00 5.098731e+00 6.077934e+00 6.661420e+00 7.527827e+00 8.814006e+00 8.806557e+00 8.840944e+00 8.271550e+00 6.434236e+00 5.169007e+00 3.641114e+00 3.887689e+00 4.552978e+00 3.404686e+00 4.443977e+00 4.759432e+00 4.491367e+00 4.665801e+00 4.045605e+00 4.479602e+00 5.129893e+00 6.109758e+00 5.826936e+00
5.441785e+00 5.077962e+00 5.411935e+00 5.716284e+00 5.700344e+00 7.274243e+00 8.348735e+00 8.704573e+00 9.061549e+00 9.611862e+00 9.506642e+00 9.756874e+00 9.736079e+00 9.061201e+00 8.132534e+00 7.382064e+00 6.800506e+00 6.026276e+00 5.696734e+00 5.750146e+00 5.549319e+00 4.890971e+00 4.975273e+00 4.644179e+00 4.386593e+00 3.922620e+00 2.803511e+00 2.464662e+00 1.257331e+00 1.546395e+00 1.718455e+00 1.084800e+00 1.396377e+00 1.737009e+00 1.153087e+00 5.461961e-01 -8.846566e-02 4.567666e-01 1.351525e+00 1.569334e+00 2.178196e+00 3.332297e+00 4.387155e+00 5.689959e+00 6.579441e+00 7.960542e+00 8.713224e+00 9.054110e+00 9.179888e+00 8.586609e+00 7.189161e+00 5.705330e+00 4.196786e+00 4.307218e+00 4.336816e+00 3.524704e+00 2.483161e+00 3.161442e+00 3.248097e+00 3.354777e+00 2.872482e+00 4.214814e+00 4.723512e+00 6.026250e+00 6.354404e+00
5.081454e+00 5.828561e+00 5.636808e+00 5.545265e+00 6.144125e+00 6.898885e+00 7.604417e+00 9.407117e+00 9.266470e+00 9.278420e+00 9.584447e+00 1.010390e+01 1.037154e+01 8.732445e+00 8.318592e+00 7.051343e+00 6.636552e+00 5.767315e+00 4.893215e+00 5.670339e+00 5.761705e+00 5.531830e+00 5.054547e+00 4.293770e+00 3.780166e+00 5.183929e+00 4.371043e+00 2.591645e+00 1.803748e+00 1.568312e+00 2.023980e+00 2.399087e+00 1.805405e+00 2.043924e+00 1.471761e+00 1.681998e+00 6.962970e-01 7.496495e-01 1.480075e+00 1.927717e+00 2.444117e+00 2.642645e+00 3.367437e+00 4.316350e+00 5.545433e+00 7.706613e+00 8.666050e+00 8.033399e+00 8.637253e+00 8.177593e+00 7.002301e+00 6.012681e+00 4.635389e+00 3.593348e+00 3.752127e+00 3.730558e+00 2.233395e+00 1.772959e+00 2.581693e+00 2.712324e+00 2.788355e+00 2.370973e+00 4.016929e+00 5.394523e+00 6.329881e+00
5.209032e+00 5.233209e+00 5.821262e+00 6.347413e+00 5.891954e+00 6.337645e+00 7.552802e+00 8.716838e+00 9.560214e+00 9.368583e+00 8.748228e+00 9.626360e+00 1.016347e+01 9.079530e+00 7.920467e+00 6.868815e+00 6.213681e+00 5.960658e+00 4.920207e+00 4.568906e+00 5.182979e+00 5.550339e+00 5.905207e+00 4.405470e+00 3.543420e+00 4.189775e+00 5.249424e+00 4.001718e+00 2.940862e+00 2.616781e+00 2.146814e+00 2.643711e+00 2.287623e+00 2.197347e+00 1.950467e+00 1.773031e+00 1.978184e+00 1.894244e+00 1.451452e+00 2.132547e+00 3.496917e+00 2.938438e+00 2.191207e+00 4.035191e+00 5.098354e+00 6.023095e+00 7.853279e+00 7.473263e+00 7.641525e+00 7.912691e+00 7.739557e+00 6.141634e+00 4.774831e+00 4.119936e+00 2.800265e+00 3.304729e+00 2.920612e+00 1.803827e+00 1.544956e+00 1.455977e+00 1.724297e+00 1.995471e+00 2.633268e+00 4.435140e+00 5.949556e+00
4.051918e+00 4.915177e+00 4.877209e+00 4.704775e+00 4.848867e+00 5.872268e+00 7.590645e+00 9.085759e+00 9.115103e+00 9.152259e+00 9.140708e+00 9.080787e+00 9.449502e+00 9.817218e+00 7.996649e+00 7.263086e+00 6.790117e+00 6.039748e+00 5.719111e+00 4.243342e+00 4.334234e+00 4.509522e+00 5.441824e+00 4.824900e+00 3.811371e+00 3.848665e+00 5.060199e+00 4.676218e+00 3.244166e+00 3.184960e+00 2.223774e+00 1.557470e+00 1.518597e+00 2.228118e+00 1.719742e+00 3.065857e+00 2.902617e+00 2.256791e+00 1.857368e+00 2.948611e+00 4.346605e+00 3.800578e+00 2.980690e+00 2.594305e+00 4.108112e+00 5.014701e+00 6.756221e+00 7.909742e+00 7.452988e+00 7.573294e+00 7.130443e+00 7.676534e+00 6.351107e+00 4.288296e+00 2.995814e+00 2.867161e+00 2.963484e+00 1.724129e+00 1.380975e+00 8.589622e-01 1.392121e+00 1.490657e+00 1.971512e+00 3.759334e+00 4.768483e+00
3.728960e+00 3.316350e+00 3.862614e+00 4.129052e+00 4.299033e+00 5.098811e+00 6.643801e+00 8.547906e+00 9.657976e+00 8.749966e+00 8.829431e+00 9.385845e+00 9.721577e+00 9.093761e+00 8.646148e+00 7.463875e+00 6.845829e+00 6.030328e+00 6.134135e+00 5.463886e+00 4.389760e+00 4.365371e+00 4.135150e+00 4.444053e+00 4.453332e+00 4.901081e+00 4.490471e+00 4.871085e+00 4.341160e+00 4.131189e+00 3.227117e+00 1.984676e+00 1.544243e+00 1.511422e+00 1.732074e+00 2.982653e+00 3.795909e+00 3.894982e+00 3.195930e+00 3.610000e+00 4.505774e+00 4.019579e+00 4.105406e+00 3.502134e+00 2.564540e+00 4.008310e+00 4.784792e+00 6.201172e+00 7.722632e+00 7.243793e+00 7.057765e+00 6.883886e+00 7.008829e+00 5.627538e+00 3.878046e+00 2.792751e+00 2.680660e+00 1.480632e+00 5.697911e-01 7.237232e-01 3.106144e-01 7.833649e-01 1.827256e+00 3.508104e+00 4.330491e+00
1.892328e+00 2.573049e+00 2.795801e+00 3.769837e+00 4.214253e+00 5.100067e+00 6.840608e+00 7.976124e+00 9.247051e+00 8.826596e+00 8.699324e+00 9.182669e+00 9.043188e+00 9.574730e+00 8.501297e+00 7.135623e+00 6.534480e+00 7.303387e+00 6.657296e+00 5.720352e+00 4.972302e+00 4.755063e+00 4.944909e+00 4.804865e+00 5.527340e+00 3.574847e+00 3.265663e+00 3.843676e+00 3.818416e+00 3.744213e+00 2.428538e+00 2.394844e+00 1.906566e+00 1.561677e+00 2.329711e+00 1.553170e+00 2.839853e+00 3.629196e+00 3.471547e+00 3.992947e+00 4.514604e+00 5.830182e+00 5.418237e+00 4.438535e+00 3.658766e+00 3.350945e+00 4.462993e+00 5.710874e+00 7.441916e+00 7.048731e+00 6.626620e+00 5.912753e+00 5.923571e+00 5.427810e+00 4.119766e+00 3.351491e+00 2.615937e+00 2.387586e+00 1.981096e+00 2.312158e-01 6.265440e-01 8.503401e-01 1.414672e+00 1.983482e+00 3.605342e+00
6.848644e-01 1.537272e+00 2.254445e+00 3.224578e+00 3.463701e+00 5.047064e+00 6.480413e+00 7.710977e+00 8.500005e+00 8.256727e+00 7.878942e+00 7.980470e+00 8.948941e+00 9.130078e+00 9.173698e+00 7.611432e+00 6.573675e+00 7.320714e+00 7.668353e+00 6.150967e+00 5.546543e+00 5.559995e+00 5.990017e+00 5.498539e+00 5.998091e+00 3.943430e+00 2.763356e+00 3.132638e+00 2.735972e+00 2.672895e+00 2.565322e+00 2.333558e+00 1.815821e+00 1.615268e+00 2.077299e+00 2.316192e+00 2.108573e+00 3.237502e+00 4.235995e+00 4.488622e+00 3.954549e+00 5.113894e+00 6.255893e+00 5.494714e+00 5.261353e+00 4.051766e+00 3.489581e+00 4.960138e+00 7.136853e+00 6.875111e+00 6.240122e+00 4.967303e+00 4.043065e+00 3.855837e+00 4.580509e+00 4.032330e+00 3.071678e+00 2.499706e+00 2.875189e+00 1.585685e+00 4.920613e-01 1.005466e+00 7.921406e-01 2.433742e+00 3.136570e+00
-1.491260e-01 9.597711e-01 1.279125e+00 1.815496e+00 2.355587e+00 3.923252e+00 5.661714e+00 7.040505e+00 7.525685e+00 7.755840e+00 7.890343e+00 7.342550e+00 8.119977e+00 8.086397e+00 7.909016e+00 8.331982e+00 7.039834e+00 6.550661e+00 7.719724e+00 7.271456e+00 5.932244e+00 6.074877e+00 5.713377e+00 5.954825e+00 5.738016e+00 4.426900e+00 3.244052e+00 2.182948e+00 2.040286e+00 1.867162e+00 1.825151e+00 1.834335e+00 1.363736e+00 1.668304e+00 1.592508e+00 1.505792e+00 1.724185e+00 3.193542e+00 4.546356e+00 4.900262e+00 4.578120e+00 5.079815e+00 5.457511e+00 6.231876e+00 5.272269e+00 6.185431e+00 5.231001e+00 5.014151e+00 6.236605e+00 5.401827e+00 5.196990e+00 4.088913e+00 3.734325e+00 3.462001e+00 3.459428e+00 3.082508e+00 2.596568e+00 2.818077e+00 2.739850e+00 2.546589e+00 1.502493e+00 1.466517e+00 9.448097e-01 9.886848e-01 2.391922e+00
-6.333716e-01 -1.198029e-01 7.121924e-01 1.396801e+00 1.577949e+00 2.463537e+00 4.187190e+00 5.812189e+00 6.983852e+00 7.744062e+00 7.885121e+00 8.054150e+00 7.414935e+00 7.815340e+00 7.450758e+00 6.784855e+00 6.982082e+00 6.561389e+00 6.814885e+00 6.987126e+00 6.543546e+00 6.620525e+00 6.362583e+00 6.602310e+00 5.904129e+00 4.974464e+00 3.797753e+00 2.136925e+00 1.279470e+00 1.193148e+00 1.309694e+00 1.027103e+00 5.097270e-01 1.450876e+00 1.700903e+00 1.138200e+00 1.013529e+00 2.253555e+00 4.117680e+00 4.584900e+00 5.266328e+00 5.315503e+00 5.338311e+00 5.355521e+00 6.079551e+00 6.571646e+00 6.208221e+00 5.865087e+00 6.133226e+00 5.508685e+00 4.018709e+00 3.829122e+00 2.795460e+00 2.572191e+00 1.951295e+00 2.700695e+00 2.532270e+00 1.918047e+00 1.951526e+00 1.940766e+00 2.510247e+00 2.395819e+00 1.896311e+00 1.916708e+00 1.457341e+00
-1.394553e+00 -7.371901e-01 -4.656074e-01 3.949708e-01 9.164181e-01 2.005246e+00 3.696333e+00 5.548583e+00 6.508873e+00 6.178170e+00 6.536128e+00 6.767568e+00 6.731152e+00 6.523222e+00 6.698209e+00 7.095047e+00 6.707546e+00 6.893341e+00 7.088123e+00 5.718735e+00 5.912242e+00 6.288921e+00 5.748880e+00 6.027125e+00 5.375448e+00 4.776438e+00 3.694846e+00 2.970656e+00 1.625650e+00 1.648387e+00 8.635520e-01 1.491572e+00 5.148635e-01 4.472450e-01 1.735900e+00 1.809349e+00 2.181862e+00 1.296077e+00 3.473328e+00 4.431125e+00 4.883402e+00 5.561957e+00 4.764225e+00 5.771367e+00 6.124736e+00 5.412570e+00 5.667282e+00 5.344448e+00 5.448966e+00 4.838925e+00 3.753369e+00 2.846410e+00 3.075242e+00 3.975717e+00 3.837199e+00 2.872327e+00 3.310715e+00 2.707274e+00 2.542262e+00 2.786829e+00 3.354176e+00 3.154344e+00 2.343530e+00 1.508997e+00 1.171325e+00
-1.355517e+00 -7.328187e-01 -8.384121e-01 -5.849868e-01 1.947066e-01 1.251669e+00 2.557229e+00 4.130899e+00 6.122447e+00 5.516895e+00 5.069398e+00 5.584303e+00 5.215918e+00 4.843681e+00 5.266972e+00 5.274912e+00 5.865898e+00 6.463888e+00 6.376686e+00 5.678804e+00 4.702464e+00 4.801389e+00 5.406822e+00 5.551079e+00 5.516334e+00 4.812371e+00 3.383593e+00 3.197324e+00 2.053471e+00 2.013720e+00 1.262817e+00 8.635911e-01 1.240007e+00 1.214069e+00 1.129155e+00 2.171028e+00 2.386497e+00 2.351577e+00 2.012806e+00 3.367779e+00 3.996140e+00 4.614714e+00 5.129434e+00 5.596483e+00 6.583975e+00 6.181292e+00 5.107480e+00 5.116332e+00 5.282253e+00 4.874447e+00 4.323994e+00 3.166312e+00 2.596697e+00 4.090327e+00 5.094191e+00 4.783053e+00 4.115520e+00 3.616789e+00 3.646006e+00 3.186872e+00 3.346357e+00 3.072939e+00 2.870650e+00 2.465807e+00 1.558588e+00
-1.261190e+00 -1.033740e+00 -6.830687e-01 -1.216780e+00 -7.762033e-01 1.516764e+00 2.518811e+00 3.624710e+00 5.945843e+00 5.427477e+00 4.907722e+00 4.828495e+00 5.151011e+00 4.818413e+00 4.585824e+00 4.640609e+00 4.995069e+00 5.543320e+00 5.735238e+00 5.731849e+00 4.567569e+00 5.053657e+00 5.875896e+00 5.107730e+00 5.448326e+00 4.658102e+00 2.958185e+00 2.898378e+00 1.690362e+00 2.707692e+00 1.831866e+00 1.315838e+00 1.413718e+00 1.294393e+00 1.423221e+00 2.273093e+00 2.127413e+00 3.167340e+00 2.353367e+00 3.189138e+00 4.298190e+00 4.870334e+00 5.105351e+00 5.822122e+00 6.140356e+00 6.430158e+00 5.515455e+00 5.606629e+00 5.824920e+00 5.207117e+00 4.771014e+00 4.006534e+00 3.129490e+00 4.042656e+00 4.482260e+00 5.023406e+00 4.766548e+00 3.929190e+00 3.824572e+00 3.859556e+00 3.929050e+00 4.030037e+00 3.485697e+00 2.577159e+00 1.825538e+00
-9.844412e-01 -7.172590e-01 -1.069501e+00 -1.373919e+00 -1.640823e+00 2.583315e-01 2.399892e+00 3.547394e+00 5.318219e+00 5.171508e+00 4.821649e+00 4.766214e+00 4.612866e+00 4.398629e+00 3.481488e+00 3.606593e+00 3.616410e+00 4.477294e+00 4.907536e+00 4.691741e+00 4.826931e+00 5.480411e+00 5.684889e+00 5.674403e+00 5.004638e+00 4.097218e+00 3.394326e+00 2.133759e+00 1.630897e+00 1.807784e+00 2.428484e+00 2.095732e+00 1.516181e+00 2.200685e+00 1.972647e+00 2.658610e+00 2.598363e+00 3.054550e+00 3.102483e+00 3.387394e+00 3.851044e+00 5.362159e+00 5.896231e+00 5.766434e+00 6.119646e+00 6.268308e+00 6.394931e+00 5.960577e+00 6.038599e+00 5.547066e+00 5.972622e+00 4.926847e+00 4.378317e+00 4.062708e+00 4.504750e+00 4.798228e+00 5.491411e+00 4.872895e+00 4.365058e+00 4.123063e+00 3.781067e+00 3.513824e+00 3.745373e+00 2.846252e+00 2.676110e+00
-1.150612e+00 -7.050814e-01 -7.655863e-01 -1.076760e+00 -1.013905e+00 -1.019951e+00 7.826925e-01 3.036397e+00 4.626144e+00 4.162489e+00 3.652408e+00 3.904837e+00 3.945640e+00 3.493660e+00 2.427036e+00 3.757061e+00 3.885724e+00 3.464065e+00 3.419336e+00 4.012740e+00 3.633241e+00 3.999561e+00 4.535579e+00 4.859861e+00 4.066811e+00 4.271111e+00 3.252243e+00 2.521533e+00 2.031680e+00 6.883370e-01 1.414596e+00 1.943453e+00 1.278387e+00 1.928811e+00 1.803763e+00 1.110128e+00 1.815406e+00 2.146096e+00 2.673824e+00 3.595969e+00 4.637555e+00 4.075624e+00 4.931913e+00 5.775768e+00 5.769238e+00 5.836939e+00 5.949439e+00 5.296731e+00 5.687855e+00 5.922408e+00 5.887561e+00 5.712270e+00 4.183505e+00 5.203151e+00 5.309896e+00 4.330040e+00 4.576289e+00 4.923041e+00 4.416059e+00 4.669945e+00 4.332298e+00 3.262559e+00 3.549263e+00 2.967895e+00 1.888564e+00
-1.984018e+00 -2.008509e+00 -1.207607e+00 -1.083957e+00 -1.336119e+00 -1.425774e+00 -9.424216e-01 1.533108e+00 3.226825e+00 3.095456e+00 2.098816e+00 2.358298e+00 2.290575e+00 2.221943e+00 2.125787e+00 3.122079e+00 3.204034e+00 3.421383e+00 2.894394e+00 2.717453e+00 2.979954e+00 2.946675e+00 3.323471e+00 3.022508e+00 3.252651e+00 3.283607e+00 2.609449e+00 2.215822e+00 1.628133e+00 4.175121e-01 -1.131904e-01 -1.412877e-02 6.373395e-01 9.292014e-01 1.593180e+00 1.183795e+00 9.883506e-01 1.739679e+00 2.652850e+00 4.303492e+00 4.966744e+00 5.025529e+00 4.169874e+00 4.758309e+00 5.758630e+00 5.445360e+00 5.759566e+00 5.252253e+00 5.090171e+00 5.309514e+00 5.478656e+00 4.659758e+00 4.590082e+00 5.277566e+00 5.344101e+00 5.008390e+00 4.589056e+00 4.291274e+00 4.748617e+00 4.952145e+00 4.209437e+00 3.736968e+00 2.554355e+00 2.170832e+00 1.810143e+00
-1.589066e+00 -1.950409e+00 -1.397313e+00 -9.626836e-01 -1.411500e+00 -1.218230e+00 -4.480471e-01 -4.074166e-01 1.984239e+00 1.245539e+00 1.158405e+00 9.525005e-01 1.277742e+00 2.324266e+00 1.538571e+00 1.602576e+00 2.566417e+00 2.803336e+00 3.116636e+00 3.243163e+00 2.652153e+00 2.859572e+00 2.558261e+00 2.449210e+00 2.672344e+00 1.993561e+00 1.439043e+00 1.184772e+00 1.255696e+00 1.887656e-01 -5.866695e-01 -8.480065e-01 3.553921e-01 1.157698e+00 1.077385e+00 1.616184e+00 1.385806e+00 1.597014e+00 3.123353e+00 3.340776e+00 5.246260e+00 5.098123e+00 4.220611e+00 5.203172e+00 5.838954e+00 5.955388e+00 6.387290e+00 5.092346e+00 5.160516e+00 5.097109e+00 5.795385e+00 5.768570e+00 4.705338e+00 5.638525e+00 5.251847e+00 5.033735e+00 4.575504e+00 4.940585e+00 4.943019e+00 4.853172e+00 4.360821e+00 4.213731e+00 2.769468e+00 2.406540e+00 1.932533e+00
-1.969531e+00 -1.437129e+00 -1.489627e+00 -1.844036e+00 -1.417025e+00 -6.206829e-01 -3.997681e-01 -4.083330e-01 -1.835873e-01 -6.013014e-01 -1.046536e-01 -3.233431e-01 2.987390e-01 1.184427e+00 1.442910e+00 1.367778e+00 1.299578e+00 2.504596e+00 2.976103e+00 3.077817e+00 2.973064e+00 3.112011e+00 2.758677e+00 2.354431e+00 1.334995e+00 1.272500e+00 1.252352e+00 8.587563e-01 4.112952e-01 3.231322e-01 -5.061019e-01 -9.594516e-01 -7.608046e-01 3.576593e-01 8.315614e-01 1.205838e+00 9.996718e-01 2.379511e+00 3.185820e+00 4.407889e+00 4.705305e+00 4.162572e+00 4.581037e+00 5.724407e+00 6.367183e+00 6.334291e+00 6.305481e+00 5.191895e+00 4.298388e+00 5.283435e+00 5.310672e+00 5.288029e+00 5.647656e+00 6.116724e+00 5.727891e+00 5.262819e+00 4.792703e+00 4.524750e+00 4.705696e+00 4.415971e+00 4.769394e+00 4.235848e+00 3.757889e+00 3.058100e+00 2.493124e+00
-2.071996e+00 -2.977325e+00 -1.940537e+00 -1.720868e+00 -1.785197e+00 -9.580949e-01 -1.061841e-01 -4.760176e-01 -7.627790e-02 -1.403821e+00 -1.231117e+00 -1.334072e+00 -1.310539e+00 -1.593438e-01 5.106415e-01 7.805132e-01 7.884293e-01 1.602791e+00 2.373079e+00 1.968655e+00 2.342990e+00 2.307782e+00 1.630827e+00 1.510372e+00 1.207185e+00 9.475603e-01 9.752323e-01 9.258809e-01 8.281120e-01 -4.060802e-01 -7.619485e-01 -8.383837e-01 -8.091496e-01 -8.871177e-01 6.912495e-01 1.383117e+00 1.858185e+00 2.160971e+00 3.130748e+00 4.005433e+00 4.224181e+00 4.667015e+00 4.339043e+00 4.635371e+00 5.470941e+00 5.339616e+00 5.517048e+00 5.378056e+00 3.642818e+00 3.510998e+00 3.644335e+00 4.194370e+00 4.462491e+00 5.357584e+00 4.945061e+00 3.786906e+00 3.743239e+00 4.037629e+00 4.250832e+00 3.574159e+00 3.285385e+00 4.146036e+00 3.631236e+00 2.866116e+00 1.681006e+00
-2.647297e+00 -3.028525e+00 -3.357061e+00 -2.642230e+00 -2.381240e+00 -1.827557e+00 -3.692811e-01 -7.702171e-01 -8.435964e-01 -1.847837e+00 -2.087221e+00 -2.859237e+00 -2.663131e+00 -1.844920e+00 -9.564995e-01 -4.260111e-01 4.351024e-01 1.082772e+00 2.543805e+00 2.366959e+00 1.646092e+00 7.627757e-01 7.664246e-01 8.179283e-01 1.222446e+00 9.859897e-01 1.104428e+00 8.097288e-01 1.404329e+00 3.471008e-01 -1.040612e+00 -1.350947e+00 -1.214896e+00 -1.130993e+00 -9.930263e-02 5.064735e-01 2.070158e+00 2.905444e+00 3.815424e+00 3.729715e+00 4.199137e+00 3.683104e+00 3.832608e+00 4.239835e+00 3.786969e+00 3.760513e+00 3.998923e+00 4.290924e+00 3.791436e+00 3.152365e+00 2.364821e+00 2.545939e+00 3.598137e+00 4.174696e+00 4.164325e+00 3.482326e+00 2.088172e+00 2.533749e+00 3.107746e+00 2.108672e+00 1.833141e+00 3.001713e+00 3.190180e+00 2.786023e+00 1.511265e+00
-1.589702e+00 -2.683335e+00 -3.671042e+00 -3.473080e+00 -2.362927e+00 -2.537491e+00 -1.091433e+00 -6.836081e-01 -3.549236e-01 -1.211775e+00 -2.681207e+00 -2.655281e+00 -3.066549e+00 -2.394543e+00 -1.816379e+00 -1.404493e+00 -5.894652e-01 9.814854e-01 1.411943e+00 2.672098e+00 1.565713e+00 1.294491e+00 1.194905e+00 3.003897e-01 2.066963e-01 8.827898e-01 5.853560e-01 1.093839e+00 8.600730e-01 3.431679e-01 -1.057618e+00 -5.866698e-01 -1.013660e+00 -6.775499e-01 -3.680409e-01 6.794478e-01 2.002143e+00 2.508584e+00 3.286252e+00 4.029534e+00 4.586171e+00 3.974900e+00 3.068662e+00 3.268077e+00 3.066368e+00 2.777234e+00 3.432351e+00 3.502598e+00 2.562087e+00 2.874320e+00 2.111331e+00 1.883848e+00 2.859251e+00 2.408614e+00 3.302948e+00 2.556066e+00 1.824670e+00 5.600309e-01 1.479612e+00 1.658915e+00 1.009606e+00 1.291330e+00 2.141483e+00 2.301030e+00 1.391378e+00
-1.499738e+00 -2.055788e+00 -3.201080e+00 -3.602518e+00 -3.190926e+00 -3.353146e+00 -2.690064e+00 -1.602858e+00 -7.736396e-01 -1.762331e+00 -2.363063e+00 -2.635480e+00 -3.712719e+00 -3.321408e+00 -2.365693e+00 -1.757468e+00 -1.439047e+00 -2.341636e-01 6.427262e-01 9.817125e-01 1.899104e+00 1.205720e+00 6.576719e-01 4.037724e-01 -5.919751e-01 -1.069323e-01 4.772757e-02 4.684628e-01 1.202385e+00 1.385942e-01 -1.805587e-01 -2.262844e-01 -1.117672e+00 -1.060145e+00 -2.568699e-01 1.521297e+00 2.419996e+00 2.792944e+00 3.210923e+00 4.567685e+00 5.135603e+00 4.273785e+00 2.937539e+00 2.983145e+00 2.234644e+00 2.422078e+00 1.870050e+00 1.772890e+00 2.046020e+00 1.586618e+00 1.410105e+00 1.871040e+00 1.428801e+00 1.117418e+00 1.592217e+00 1.762828e+00 1.009379e+00 1.335858e-01 -3.921344e-02 1.736988e-01 4.568981e-01 9.266309e-01 4.532849e-01 1.277748e+00 2.163283e+00
-1.109707e+00 -2.345118e+00 -2.804823e+00 -2.915610e+00 -3.031083e+00 -1.845703e+00 -2.198094e+00 -2.390223e+00 -1.463075e+00 -7.063998e-01 -1.358223e+00 -3.347205e+00 -3.444220e+00 -4.126795e+00 -4.172117e+00 -3.372546e+00 -2.288947e+00 -1.949900e+00 -7.650580e-01 7.480732e-02 6.381110e-01 1.238322e+00 3.201974e-01 3.414752e-01 -6.436993e-01 2.497220e-01 -2.197139e-01 5.256842e-01 6.933838e-01 1.774171e+00 4.517281e-01 3.436792e-01 1.889694e-01 6.529053e-01 7.249221e-01 2.097587e+00 3.750628e+00 2.191590e+00 2.949175e+00 3.683249e+00 4.759878e+00 5.033113e+00 3.946907e+00 2.412172e+00 2.147223e+00 1.736378e+00 2.220130e+00 1.706470e+00 2.197172e+00 2.601434e+00 2.158801e+00 1.347921e+00 1.643331e+00 9.863137e-01 5.215095e-01 1.264616e+00 1.109794e-01 3.674825e-01 1.173687e-02 -8.572108e-01 -1.030640e-01 -4.389553e-01 -7.720983e-02 1.645724e-01 1.809003e+00
-1.505992e+00 -2.344560e+00 -2.390567e+00 -2.947885e+00 -2.565518e+00 -1.302831e+00 -8.644249e-01 -1.208326e+00 -1.196514e+00 -1.226953e+00 -8.785651e-01 -1.871491e+00 -3.576780e+00 -4.026846e+00 -5.387281e+00 -5.142098e+00 -4.010124e+00 -3.926074e+00 -2.974302e+00 -1.732501e+00 -3.906323e-01 -3.215177e-01 4.940826e-01 9.975837e-02 -3.542802e-01 -9.249432e-02 3.729069e-01 4.931387e-01 9.296295e-01 1.257818e+00 1.804660e+00 1.670511e+00 1.182092e+00 1.838493e+00 2.488639e+00 3.286932e+00 4.401700e+00 3.229251e+00 2.114754e+00 2.592659e+00 3.789316e+00 4.558361e+00 4.547749e+00 3.699842e+00 2.290839e+00 1.914852e+00 2.218753e+00 1.834010e+00 1.516803e+00 2.291931e+00 2.822092e+00 1.863373e+00 1.759921e+00 1.073474e+00 -1.569942e-01 -2.233896e-01 7.754220e-02 2.390521e-01 3.620275e-01 -2.009562e-03 -1.169667e+00 -8.563112e-01 -4.668904e-01 -2.218090e-01 7.627501e-01
-4.291628e-01 -9.414074e-01 -1.612725e+00 -1.676015e+00 -2.029936e+00 -1.250269e+00 -6.024906e-01 -4.667755e-01 -5.405679e-01 -1.140002e+00 -1.233914e+00 -1.684338e+00 -2.192513e+00 -3.453250e+00 -4.179914e+00 -6.038525e+00 -5.026154e+00 -3.799303e+00 -3.544844e+00 -2.510275e+00 -1.393823e+00 -8.254869e-01 5.977125e-02 7.788811e-01 -3.895533e-01 1.067470e-01 8.548600e-01 2.059765e-03 9.310283e-01 8.408967e-01 1.191040e+00 1.754665e+00 1.644167e+00 2.622783e+00 2.457815e+00 3.779863e+00 4.462402e+00 4.675307e+00 3.954115e+00 2.567252e+00 3.926193e+00 3.573630e+00 4.205070e+00 4.569530e+00 2.568296e+00 1.989632e+00 1.924982e+00 2.010974e+00 1.952667e+00 1.885936e+00 1.776502e+00 2.291867e+00 1.544859e+00 1.797943e+00 3.996664e-02 -6.706683e-01 -8.946436e-01 -5.984549e-01 -3.853237e-01 -6.650646e-02 -8.020727e-01 -9.519829e-01 -6.406056e-01 1.270451e-01 7.275724e-01
0.000000e+00 -5.638782e-01 -6.896273e-01 -1.335085e+00 -1.557536e+00 -1.542088e+00 -9.312500e-01 -8.975509e-01 -5.189815e-01 -1.267341e+00 -1.254846e+00 -1.748582e+00 -1.766319e+00 -2.686361e+00 -3.847703e+00 -4.916091e+00 -6.555207e+00 -5.564994e+00 -4.232066e+00 -3.183533e+00 -3.006122e+00 -1.385556e+00 -5.521151e-01 4.441741e-01 5.214209e-01 9.286030e-01 4.799873e-01 2.355712e-01 6.109485e-02 -1.891402e-01 1.927296e-01 9.115020e-01 2.317759e+00 2.901732e+00 3.137578e+00 3.877790e+00 4.469932e+00 4.286925e+00 4.809290e+00 3.859374e+00 3.616167e+00 3.612576e+00 3.420356e+00 3.345053e+00 3.758720e+00 2.356862e+00 1.695212e+00 1.541981e+00 1.391047e+00 1.021189e+00 1.482672e+00 1.143376e+00 1.766633e+00 1.513286e+00 9.991845e-01 -7.523866e-01 -1.521531e+00 -1.409149e+00 -1.259833e+00 -7.665281e-01 -8.344059e-01 -1.165808e+00 -8.476308e-01 -4.408455e-01 0.000000e+00
